ply
format ascii 1.0
comment PCL generated
element vertex 1122
property float x
property float y
property float z
property uchar red
property uchar green
property uchar blue
element face 0
element camera 0
property float view_px
property float view_py
property float view_pz
property float x_axisx
property float x_axisy
property float x_axisz
property float y_axisx
property float y_axisy
property float y_axisz
property float z_axisx
property float z_axisy
property float z_axisz
property float focal
property float scalex
property float scaley
property float centerx
property float centery
property int viewportx
property int viewporty
property float k1
property float k2
end_header
-8.7549982 5.7632208 -0.096371002 0 79 255
-4.3435478 -3.3488171 -0.089929 0 79 255
-4.581974 -3.1067619 -0.079713002 0 80 255
-4.8385339 -1.99946 -0.085047998 0 80 255
-4.8273101 -1.9855911 -0.087435998 0 80 255
-4.8186121 -1.967648 -0.079700999 0 80 255
-2.559485 -1.1422009 -0.083719999 0 80 255
-4.6141849 -0.62580198 -0.077901997 0 80 255
-5.0546632 -0.122377 -0.089134 0 79 255
-5.0067229 -0.123351 -0.085749 0 80 255
-4.9414701 -0.117663 -0.082336999 0 80 255
-5.0059395 -0.097701505 -0.0844675 0 80 255
-4.9244351 0.002053 -0.080381997 0 80 255
-1.21815 0.05297 -0.080825999 0 255 0
-0.116453 0.087086 -0.076924004 0 255 0
-4.641541 0.109776 -0.079392999 0 80 255
-0.047885001 0.21634901 -0.076291002 0 255 0
-0.120062 0.22752801 -0.076529004 0 255 0
-0.049756002 0.270583 -0.089123003 0 79 255
-0.086939 0.33283299 -0.080991998 0 255 0
-0.16039 0.37522599 -0.077572003 0 255 0
-8.2255821 0.86520749 -0.083550498 0 80 255
-8.1936312 1.181173 -0.084893003 0 80 255
-8.0701914 1.213099 -0.087039001 128 128 128
-8.0694036 1.209254 -0.085592002 0 80 255
-8.0663414 1.223178 -0.084132999 0 80 255
-10.854693 1.354854 -0.078858003 0 80 255
-8.842063 1.895304 -0.087187 0 80 255
-8.4861307 2.055794 -0.087626003 0 80 255
-8.3877497 2.2165201 -0.084429003 0 80 255
-8.617075 2.9543099 -0.084980004 128 128 128
-8.568819 2.9412391 -0.079425998 0 80 255
-8.5863647 3.0164421 -0.085624002 0 80 255
-8.6054897 3.03214 -0.087268502 0 80 255
-7.7572212 3.248311 -0.086069003 0 80 255
-7.728817 3.2497211 -0.089924999 0 79 255
-7.751853 3.2593009 -0.085854001 0 80 255
-7.7833538 3.8263121 -0.080868997 0 80 255
-8.9839182 4.066566 -0.078676 128 128 128
-8.3433762 5.4920168 -0.078910001 0 80 255
-8.258276 5.5433178 -0.087595001 0 80 255
-11.90497 6.4021888 -0.080159001 0 80 255
-8.7471819 6.4070768 -0.077496 0 80 255
-11.322409 6.6029601 -0.085008003 0 80 255
-8.757061 6.6274462 -0.078680001 0 80 255
-8.4087505 -3.1004701 -0.061912 0 81 255
-9.3895531 -2.72141 -0.070407003 0 80 255
-6.9391432 -2.4813919 -0.068332002 0 80 255
-7.008245 -2.4174941 -0.063265003 0 81 255
-2.957844 -1.633322 -0.073119998 0 80 255
-5.016705 -0.18567701 -0.066019997 0 81 255
-5.030015 -0.14445999 -0.069888003 0 80 255
-4.9984999 -0.093401 -0.068847999 0 80 255
-4.987339 -0.097708002 -0.068993002 0 80 255
-4.5254378 -0.031422 -0.063270003 0 81 255
-4.5007401 -0.033769 -0.064583004 0 81 255
-0.122942 0.087754004 -0.071602002 0 80 255
-0.11356933 0.083244674 -0.069326334 0 255 0
-0.107563 0.091233999 -0.073275 0 80 255
-0.095767997 0.097455002 -0.064296998 0 81 255
-0.067482002 0.202428 -0.068584003 0 255 0
-0.049024001 0.305655 -0.071144 0 255 0
-0.103865 0.32576999 -0.068667002 0 80 255
-0.106768 0.33500099 -0.071574003 0 80 255
-9.1985111 0.83472198 -0.072586998 0 80 255
-8.67486 0.97131097 -0.070663497 0 80 255
-0.450591 1.004141 -0.066312999 0 255 0
-8.426693 1.09168 -0.071682997 0 80 255
-1.4218971 1.3480819 -0.065700002 0 255 0
-5.3965569 1.550645 -0.0647 0 81 255
-0.95080101 1.546429 -0.074626997 0 255 0
-4.943048 1.6058691 -0.072283998 0 80 255
-4.9345832 1.625201 -0.073091999 0 80 255
-6.9259939 1.64153 -0.062794998 0 81 255
-8.0181952 1.670423 -0.070574999 0 80 255
-8.5137844 2.050137 -0.063069999 128 128 128
-1.1569231 2.081918 -0.069158003 0 255 0
-1.134903 2.095016 -0.064406998 0 255 0
-8.356926 2.100683 -0.074230999 128 128 128
-8.5516052 2.716882 -0.073248997 128 128 128
-8.5645056 2.8450191 -0.072843 0 80 255
-5.0699682 3.0842409 -0.070648998 0 80 255
-8.7027988 3.203022 -0.064694002 128 128 128
-8.8754463 3.7227709 -0.060355 128 128 128
-7.7965541 3.7723651 -0.069614999 0 80 255
-6.6920409 3.889828 -0.062327001 0 81 255
-5.420166 4.2991161 -0.061260998 0 81 255
-8.8438349 7.1173038 -0.067162 0 81 255
-2.4829569 -1.14466 -0.047006 0 81 255
-4.3004169 -0.78576702 -0.058444999 0 81 255
-4.5889111 -0.70706099 -0.057773001 0 81 255
-5.066154 -0.10333399 -0.046672001 0 81 255
-5.0397139 -0.082336001 -0.045306999 0 82 255
-4.5208168 -0.031785 -0.052051 0 81 255
-0.105299 0.086377002 -0.058706 0 255 0
-0.096648663 0.085761666 -0.055314671 0 255 0
-0.073856004 0.081896 -0.045673002 0 255 0
-0.065067999 0.095037997 -0.049004 0 255 0
-0.080950998 0.118621 -0.054435 0 255 0
-0.0082625002 0.130501 -0.0489395 0 255 0
-0.076438002 0.16146 -0.047063001 0 255 0
-9.5694675 0.174044 -0.059106998 0 81 255
-0.032699998 0.165962 -0.056545999 0 255 0
-0.099376 0.19475099 -0.059071001 0 255 0
-0.021992 0.18826351 -0.056225501 0 255 0
-0.138576 0.20387 -0.048484001 0 255 0
-0.070229001 0.21727499 -0.059671 0 81 255
-0.048939001 0.23895299 -0.051913001 0 255 0
-5.32128 0.245249 -0.059486002 0 81 255
-0.060219999 0.249523 -0.057454001 0 81 255
-0.053971998 0.31160101 -0.058665998 0 81 255
-7.9000931 0.80521399 -0.053160001 0 81 255
-0.30568901 0.83851397 -0.054163001 0 255 0
-7.9801369 0.91397601 -0.057371002 128 128 128
-7.978662 0.92532599 -0.045880001 128 128 128
-7.9778671 0.935251 -0.050680999 0 81 255
-5.544179 0.95236802 -0.052841 0 81 255
-7.9678769 0.96464097 -0.046748001 0 81 255
-0.63673401 0.97774798 -0.046417002 0 255 0
-0.58877301 1.05678 -0.052838001 0 255 0
-1.309387 1.124836 -0.052949 0 255 0
-1.252764 1.115067 -0.050067 0 255 0
-0.73545498 1.131894 -0.05618 0 255 0
-8.1411171 1.194952 -0.059638999 0 81 255
-1.052128 1.188924 -0.053920999 0 81 255
-8.0905361 1.210603 -0.052055001 128 128 128
-1.2845041 1.204668 -0.054306999 0 255 0
-6.786839 1.46095 -0.052283999 0 81 255
-5.0521712 1.671926 -0.048826002 0 81 255
-4.8269382 1.758309 -0.051906999 0 81 255
-6.9731159 1.809773 -0.057335999 0 81 255
-8.4924927 2.0550771 -0.046034999 128 128 128
-8.4832888 2.0553429 -0.051608 128 128 128
-8.4715796 2.056628 -0.045524999 0 82 255
-8.4126911 2.0803189 -0.054846 0 81 255
-8.3662605 2.097791 -0.0513345 128 128 128
-8.3557854 2.114959 -0.048540998 128 128 128
-8.3567247 2.115453 -0.057309002 0 81 255
-8.3669329 2.1437628 -0.051078334 128 128 128
-7.5565519 3.2499909 -0.046670999 0 81 255
-7.557529 3.273294 -0.056543 0 81 255
-6.745388 3.9548309 -0.049796999 0 81 255
-6.7457151 4.0023522 -0.056061 0 81 255
-6.6393309 4.0416851 -0.059055001 0 81 255
-10.541636 6.909173 -0.054939002 0 81 255
-9.7353535 7.1062541 -0.052014001 0 81 255
-2.842016 -1.9357539 -0.035303999 0 82 255
-2.817224 -1.813097 -0.031923 0 82 255
-2.4840541 -1.114862 -0.041214 0 82 255
0.097792 -0.88230401 -0.040002 0 255 0
-4.6250539 -0.53750497 -0.036456998 0 82 255
-0.089357004 0.074423 -0.036104001 0 82 255
-0.1007045 0.082998 -0.042158999 0 82 255
-0.079529501 0.083738998 -0.044252999 0 82 255
-0.070768997 0.079499997 -0.044661 0 82 255
-0.056929 0.086089 -0.030685 0 255 0
-0.062980004 0.090437002 -0.038715001 0 82 255
-0.076918997 0.10887 -0.038585 0 82 255
-0.036545999 0.121407 -0.033845 0 255 0
-0.068820998 0.153504 -0.042998999 0 82 255
-0.035684999 0.181035 -0.042119998 0 82 255
-8.5610418 0.768188 -0.039556 0 82 255
-8.4372892 0.799896 -0.035960998 0 82 255
-8.9786844 0.86870998 -0.040211 0 82 255
-1.034992 0.919209 -0.041496001 0 255 0
-8.9082193 0.93647403 -0.040502999 0 82 255
-0.62635303 0.96622199 -0.044220001 0 82 255
-1.423624 1.119922 -0.042599998 0 82 255
-8.0716877 1.207365 -0.042916998 0 82 255
-4.4911189 1.2326649 -0.044086002 0 82 255
-8.5009851 2.0541949 -0.043333001 0 82 255
-8.4775581 2.0557184 -0.033659499 0 82 255
-8.3579617 2.098192 -0.038860001 128 128 128
-8.3547955 2.111042 -0.032997001 128 128 128
-8.3598738 2.1241205 -0.042940002 128 128 128
-8.4007778 2.1407859 -0.036731999 0 82 255
-8.3709106 2.1435831 -0.037097 0 82 255
-8.366313 2.1404274 -0.036335498 0 82 255
-8.3685789 2.151437 -0.037868001 0 82 255
-8.3887405 2.1809371 -0.036669999 0 82 255
-8.3927774 2.2111938 -0.034600332 128 128 128
-5.0396609 2.845612 -0.030427 0 82 255
-7.6468992 3.1924031 -0.039367002 0 82 255
-7.6394968 3.210444 -0.044519 0 82 255
-3.5446939 3.348011 -0.031693999 0 82 255
-8.7863731 3.445976 -0.042750001 128 128 128
-6.766346 3.928057 -0.043315001 0 82 255
-8.3698101 5.3921971 -0.033426002 0 82 255
-8.4196625 5.5455151 -0.036527 128 128 128
-8.4100218 5.5598769 -0.038805 0 82 255
-12.398621 5.772552 -0.034589998 0 82 255
-8.4902277 5.7952108 -0.037996002 128 128 128
-8.4887056 5.7957888 -0.044061001 0 82 255
-8.502737 6.1761832 -0.031582002 0 82 255
-8.674036 6.3872252 -0.039124001 0 82 255
-11.653404 6.4596348 -0.042180002 0 82 255
-9.5818977 7.19102 -0.039159 0 82 255
-8.9922409 7.3204422 -0.038795002 0 82 255
-7.6480122 -4.2713699 -0.017044 0 83 255
-6.0983982 -3.9376709 -0.024831999 0 83 255
-10.070042 -1.522157 -0.01608 0 83 255
-4.9175229 -0.22651701 -0.022759 0 83 255
-5.0517249 -0.071892999 -0.020693 0 83 255
-4.6418238 -0.025033999 -0.015053 0 83 255
-4.6207151 -0.027077001 -0.020493001 0 83 255
-0.045499999 0.073022 -0.025758 0 82 255
-0.055199999 0.080766998 -0.025003999 0 82 255
-0.096951999 0.119411 -0.026943 0 255 0
-0.075875998 0.16805901 -0.028675999 0 82 255
-8.0949688 0.48320201 -0.021215999 0 83 255
-7.966383 0.65030402 -0.027543001 0 82 255
-4.8173409 0.79768598 -0.016291 0 83 255
-8.2206059 0.86929297 -0.018065 0 83 255
-0.406726 0.911488 -0.025457 0 255 0
-6.9288621 1.403338 -0.016793 0 83 255
-6.2311831 1.652023 -0.020935999 0 83 255
-8.3533878 2.1018844 -0.0201975 0 83 255
-8.3619089 2.1270189 -0.022802999 128 128 128
-8.3656416 2.1398289 -0.024489 0 83 255
-8.5033522 2.5105259 -0.01914 0 83 255
-1.427969 2.505954 -0.016906001 0 83 255
-7.6952639 3.1735721 -0.018556001 0 83 255
-7.6484618 3.211767 -0.022012999 0 83 255
-7.5529599 3.231504 -0.026056999 0 82 255
-5.4655008 4.071352 -0.028620999 0 82 255
-8.9889536 4.0819588 -0.022771999 128 128 128
-5.387753 4.1070852 -0.022918001 0 83 255
-8.4266043 5.6130042 -0.018169001 128 128 128
-8.3565788 5.6796589 -0.023961 0 83 255
-8.5669308 6.0422349 -0.023156 0 83 255
-8.2403097 -3.2718451 -0.004894 0 83 255
-7.1460061 -2.645618 -0.0090969997 0 83 255
-2.8167 -1.396323 -0.002715 0 84 255
-2.576055 -1.1285861 -0.01229 0 83 255
-4.966269 0.59911299 -0.003612 0 84 255
-5.0358982 0.62115097 -0.0057299999 0 83 255
-8.4855499 0.830585 -0.0024280001 0 84 255
-8.3416929 0.83366299 -0.0054839998 0 83 255
-8.2121868 0.86655402 -0.014393 0 83 255
-5.620502 1.023806 -0.0085319998 0 83 255
-8.2221785 1.150951 -0.00030799999 0 84 255
-8.2170753 1.1596349 -0.0038989999 0 84 255
-7.7404871 1.249733 -0.011211 0 83 255
-11.068456 1.602544 -0.0089819999 0 83 255
-11.061483 1.610296 -0.013282 0 83 255
-11.041701 1.611408 -0.0077539999 0 83 255
-5.0946088 1.674982 -0.0051970002 0 83 255
-4.9721241 1.6942509 -0.010794 128 128 128
-4.9500222 1.6890711 -0.011919 128 128 128
-4.9331331 1.6869791 -0.014757 0 83 255
-8.4903231 2.0547249 -0.004406 128 128 128
-8.4874573 2.056226 -0.005065667 0 83 255
-8.4738131 2.0572131 -0.0046740002 0 83 255
-8.3592119 2.1247046 -0.0083523998 128 128 128
-8.3653898 2.1368725 -0.0038729999 0 83 255
-8.3859758 2.204433 -0.0059549999 128 128 128
-4.892827 2.5784979 -0.014836 0 83 255
-8.5647936 2.7536609 -0.00054099999 128 128 128
-4.0598249 2.778677 -0.00746 0 83 255
-3.81337 3.2913179 -0.00067699997 0 84 255
-8.7612495 3.323071 -0.0049100001 0 83 255
-8.8183985 3.5749011 -0.012217 128 128 128
-5.4260402 4.0913959 -0.0087360004 0 83 255
-8.6134596 6.2099199 -0.0063450001 128 128 128
-8.8155346 6.8138542 -0.010014 0 83 255
-4.698503 -3.1290441 0.014423 0 84 255
-8.0825377 -2.9197199 0.0020369999 0 84 255
-5.0401878 -0.172114 0.0070079998 0 84 255
-5.0070019 -0.077168003 0.0088870004 0 84 255
-5.0183368 -0.073694997 0.0092989998 0 84 255
-8.847661 0.66345602 0.012837 0 84 255
-8.6389236 0.72820503 0.0096000005 0 84 255
-8.5458736 0.98591697 0.006296 0 84 255
-0.53875202 0.99294299 0.010934 0 84 255
-8.5064716 1.042821 0.0042590001 0 84 255
-8.1065359 1.21337 0.010474 0 84 255
-8.0864916 1.208467 0.011335 128 128 128
-8.0701504 1.2060291 0.013548 128 128 128
-4.687902 1.51536 0.010848 0 84 255
-5.0909882 1.6649131 0.0060780002 0 84 255
-5.0897012 1.670155 0.013604 0 84 255
-1.029649 1.826436 0.010927 0 84 255
-8.4804525 2.0540791 0.01421 0 84 255
-8.3537025 2.102474 0.014163 128 128 128
-8.360261 2.1248882 0.0012716666 0 84 255
-8.3673 2.1352961 0.0068399999 0 84 255
-8.3752356 2.1655071 0.010877499 128 128 128
-8.3804274 2.1877885 0.010317 128 128 128
-8.714489 3.195879 0.003669 0 84 255
-7.6453791 3.2062731 0.0093940003 0 84 255
-8.7407379 3.216167 0.002506 0 84 255
-8.8260279 3.4687309 0.0088719996 0 84 255
-8.026413 4.4545779 0.0041220002 0 84 255
-9.1564732 7.3097949 0.006825 0 84 255
-7.6492939 -4.2806869 0.026879 0 85 255
-4.682332 -3.0759301 0.021009 0 85 255
-2.758188 -2.085609 0.020160999 0 85 255
-10.757988 1.1109051 0.027269 0 85 255
-8.0645247 1.222068 0.016003 0 84 255
-8.3565779 2.112067 0.0226555 128 128 128
-8.3547421 2.107429 0.023783501 0 85 255
-8.3594351 2.128319 0.027236 128 128 128
-8.3827391 2.189887 0.022531999 0 85 255
-8.3888006 2.1977162 0.021422001 0 85 255
-8.6999321 3.145474 0.028403001 0 85 255
-7.7002811 3.223145 0.028275 128 128 128
-8.4345169 5.3560209 0.018691 0 85 255
-8.3609619 5.3880868 0.021586999 128 128 128
-8.3637304 5.4193311 0.015056 128 128 128
-8.3729658 5.4362602 0.016131001 0 84 255
-8.4038334 5.5379782 0.017418001 128 128 128
-8.4731379 5.7305441 0.021051001 0 85 255
-8.5012121 5.8429909 0.023433 128 128 128
-8.692894 6.4330788 0.0154 0 84 255
-9.2060223 7.3071189 0.022713 0 85 255
-4.5208001 -3.309505 0.042134002 0 86 255
-3.316684 -1.7308021 0.031769998 0 85 255
-1.8344229 -1.634333 0.037997 0 86 255
-2.2343199 -1.524951 0.041547999 0 86 255
-2.8306351 -1.3981709 0.031115999 0 85 255
-2.3247161 -1.24481 0.033723999 0 85 255
-10.455412 -0.59264898 0.042902 0 86 255
-5.0243082 -0.066541001 0.033135999 0 85 255
-4.819541 -0.022109 0.030456999 0 85 255
-8.9943733 0.63648999 0.032579999 0 85 255
-7.8905392 0.64507103 0.033612002 128 128 128
-8.4403381 0.80088598 0.039202999 0 86 255
-0.403503 0.93424898 0.043946002 0 86 255
-0.67686898 1.027141 0.036706001 0 85 255
-8.0315981 1.122893 0.031707 128 128 128
-8.4866619 2.057035 0.035948999 128 128 128
-8.3536386 2.099596 0.038251001 128 128 128
-8.35746 2.1052191 0.038780835 128 128 128
-8.353488 2.1032703 0.037639666 0 85 255
-8.3642149 2.129936 0.042739999 128 128 128
-8.3692474 2.144341 0.038626 128 128 128
-8.3724384 2.1569231 0.032242998 0 85 255
-8.369606 2.1472297 0.038130499 0 85 255
-7.8407779 2.1742771 0.033271998 0 85 255
-8.3959665 2.1802821 0.038637001 0 86 255
-8.4010267 2.246727 0.038125999 128 128 128
-8.3952188 2.2502241 0.034203999 0 85 255
-8.4313087 2.3658991 0.030073 128 128 128
-8.4631395 2.414248 0.040906999 128 128 128
-8.4549522 2.410887 0.041685499 0 86 255
-8.4872818 2.5090809 0.042307001 128 128 128
-8.1028891 3.0095201 0.041437998 0 86 255
-8.6668167 3.0665879 0.04298 128 128 128
-7.647923 3.1929569 0.041664001 0 86 255
-7.614171 3.2092021 0.035507001 0 85 255
-7.6089549 3.2266779 0.034926999 0 85 255
-7.5539498 3.2283781 0.039926998 0 86 255
-7.750802 3.2540791 0.044557001 0 86 255
-5.0468259 3.252068 0.034800999 0 85 255
-6.3462172 4.017766 0.037822999 0 85 255
-8.4084082 5.4760132 0.040334001 128 128 128
-8.3901644 5.4882088 0.037843 0 85 255
-8.4180775 5.5689669 0.034653999 128 128 128
-8.4119825 5.5737829 0.034327999 0 85 255
-8.4318523 5.649673 0.030325999 128 128 128
-10.966547 6.6935639 0.035185002 0 85 255
-10.597847 6.8944011 0.034481999 0 85 255
-7.704257 -4.353745 0.056456 0 86 255
-4.4949269 -3.149924 0.049913999 0 86 255
-4.941144 -3.0820799 0.053066999 0 86 255
-4.4412251 -2.948813 0.051743999 0 86 255
-10.028591 -1.817649 0.045541 0 86 255
-2.2688789 -1.643003 0.049550001 0 86 255
-8.897172 0.87351203 0.058022998 0 86 255
-8.8747873 0.89639902 0.053151 0 86 255
-0.51832998 0.95168698 0.059459001 0 87 255
-8.1970959 1.196474 0.045437001 0 86 255
-8.356554 2.090209 0.054471999 0 86 255
-8.3566961 2.1078663 0.049655002 0 86 255
-8.3621225 2.1242709 0.056830566 128 128 128
-8.3742094 2.161706 0.058393002 128 128 128
-7.6956019 3.1865211 0.045669001 128 128 128
-8.7189512 3.2174661 0.059181001 128 128 128
-5.0927639 3.2318289 0.053334001 0 86 255
-8.4667025 5.7507882 0.055991001 128 128 128
-8.4583883 5.7664318 0.055319998 0 86 255
-8.5999622 6.1442218 0.058862001 0 86 255
-11.892062 6.3954482 0.049565502 0 86 255
-11.433759 6.5583549 0.045148998 0 86 255
-11.46525 6.577456 0.047837999 0 86 255
-9.3227797 7.2686548 0.050317001 0 86 255
-2.367743 -1.0174381 0.063601002 0 87 255
-8.6518612 0.74133199 0.068787999 0 87 255
-8.5591335 0.75207198 0.065513998 0 87 255
-8.0315762 1.1922081 0.068115003 0 87 255
-8.0855198 1.206189 0.067768998 0 87 255
-1.687143 1.39658 0.062844999 0 87 255
-8.4158316 2.093693 0.066843003 0 87 255
-8.3876324 2.091413 0.062757999 0 87 255
-8.357399 2.1106129 0.060427502 0 87 255
-8.3600597 2.1246939 0.070682496 128 128 128
-8.3716745 2.1545479 0.070022002 0 87 255
-4.4689608 2.180011 0.068594001 0 87 255
-4.4714379 2.197711 0.073146001 0 87 255
-4.5690079 2.59848 0.062725998 0 87 255
-7.5471301 3.1281121 0.070738003 0 87 255
-7.5499878 3.2293 0.072362997 0 87 255
-7.7839952 3.5649149 0.060484 0 87 255
-7.1224608 3.8011141 0.073758997 0 87 255
-8.8000641 6.6736112 0.073890001 0 87 255
-3.3699241 -1.882794 0.082419999 0 88 255
-2.8644011 -1.821887 0.082292996 0 88 255
-2.833272 -1.811218 0.086846001 0 88 255
-2.7460811 -1.364133 0.083270997 0 88 255
-2.6244421 -1.182978 0.080397002 0 88 255
-2.416378 0.47334701 0.084724002 0 88 255
-9.309371 0.481702 0.077955 0 87 255
-8.5009356 2.0537009 0.085354999 128 128 128
-8.4954224 2.0570049 0.081955999 0 88 255
-8.4133902 2.08571 0.087995 0 88 255
-8.3868847 2.0987489 0.084406003 0 88 255
-8.3836575 2.0986876 0.081825003 0 88 255
-8.3788271 2.110106 0.084839001 128 128 128
-8.372489 2.1238279 0.076553002 0 87 255
-8.3637447 2.1274815 0.081855752 0 87 255
-8.370204 2.1433229 0.087679997 128 128 128
-8.394681 2.2136581 0.079607002 128 128 128
-8.4248161 2.309732 0.086836003 128 128 128
-8.4659739 2.4031789 0.080592997 0 88 255
-7.5286551 3.203609 0.076568998 0 87 255
-7.134306 3.796706 0.081311002 0 88 255
-9.8350611 5.138938 0.085092999 0 88 255
-10.384378 6.8829918 0.089855999 0 88 255
-4.934669 -1.996081 0.092018999 0 88 255
-3.117626 -1.617012 0.091045 0 88 255
-2.7702739 -1.541654 0.102343 0 89 255
-2.7746301 -1.529096 0.103608 0 89 255
-9.8824635 0.093218997 0.091335997 0 88 255
-0.00081100001 0.148339 0.092285 0 88 255
-9.5505486 0.29093701 0.104013 0 89 255
-9.4212208 0.480674 0.093131997 0 88 255
-7.985816 0.91751099 0.095964998 128 128 128
-0.41611901 0.97470599 0.103421 0 89 255
-5.0816822 1.683643 0.097969003 0 88 255
-8.6533918 1.988497 0.100872 0 88 255
-8.6020803 2.0313129 0.092439003 0 88 255
-7.9652972 2.053503 0.091632999 0 88 255
-8.3671112 2.128248 0.098561749 128 128 128
-8.3517704 2.1296461 0.098260999 0 88 255
-8.3166323 2.134398 0.092858002 0 88 255
-8.3720598 2.15376 0.10012 0 88 255
-8.3691053 2.147501 0.102237 0 89 255
-8.3871078 2.2034559 0.097301997 0 88 255
-1.406503 2.7256849 0.091025002 0 88 255
-8.5512676 2.8638821 0.097135998 0 88 255
-8.5989656 2.878248 0.091303997 128 128 128
-8.5576925 2.8882899 0.090883002 0 88 255
-8.6677465 3.084321 0.097776003 128 128 128
-8.6662979 3.1024759 0.098336004 0 88 255
-8.7364159 3.218668 0.102932 0 89 255
-8.7435265 3.2974651 0.092376001 128 128 128
-8.7186022 3.2925129 0.097309999 0 88 255
-7.7869701 3.5249801 0.093137003 128 128 128
-8.2808504 5.1541362 0.104959 128 128 128
-11.513867 6.435133 0.092704996 0 88 255
-11.638227 6.520957 0.091096997 0 88 255
-2.969044 -1.698025 0.110719 0 89 255
-7.894558 -0.30765101 0.11985 0 89 255
-5.1521049 -0.068648003 0.113833 0 89 255
-9.5440359 0.27790001 0.110297 0 89 255
-8.0204945 0.93738598 0.106353 0 89 255
-0.449745 1.055559 0.113209 0 89 255
-8.0185013 1.181269 0.108008 0 89 255
-8.070612 1.219867 0.111706 128 128 128
-8.0688057 1.230473 0.11197 0 89 255
-6.8946161 1.603979 0.106403 0 89 255
-8.7067556 2.0076981 0.113464 0 89 255
-8.471858 2.03916 0.118622 0 89 255
-8.3651838 2.1318505 0.1088065 0 89 255
-8.5598373 2.872174 0.111958 0 89 255
-7.2069349 3.774648 0.117826 0 89 255
-8.4165401 5.5544338 0.108967 128 128 128
-3.0872891 -1.772886 0.12590601 0 90 255
-10.136503 -1.6850621 0.12815399 0 90 255
-2.0647309 -1.680618 0.133238 0 90 255
-3.1219921 -1.669511 0.133669 0 90 255
-7.9075661 -0.443275 0.125356 0 90 255
-9.9128675 0.093174003 0.124527 0 90 255
-9.8141222 0.25239801 0.126167 0 90 255
-5.0658598 0.74213499 0.124317 0 90 255
-9.3330946 0.79714799 0.13247199 0 90 255
-8.2590523 0.85069698 0.12653799 0 90 255
-0.53009099 0.96346903 0.132824 0 90 255
-8.4751024 1.405076 0.134692 0 90 255
-11.001478 1.586612 0.121735 0 89 255
-8.3859072 2.112334 0.132465 0 90 255
-8.3728323 2.1623311 0.126589 128 128 128
-1.296703 2.179724 0.133486 0 90 255
-8.3790369 2.194952 0.13060901 128 128 128
-8.3908768 2.2067614 0.130969 0 90 255
-8.4116688 2.286839 0.130954 128 128 128
-8.5950394 2.8795619 0.122175 128 128 128
-8.5974293 2.952924 0.133499 0 90 255
-2.2773919 3.0862939 0.134326 0 90 255
-8.6583643 3.198205 0.123184 0 90 255
-7.5602851 3.2224281 0.133185 0 90 255
-7.1584611 3.8564169 0.123714 0 90 255
-8.42698 5.6135921 0.126219 128 128 128
-8.4538374 5.6962228 0.120562 128 128 128
-8.6476021 6.2860308 0.122668 0 90 255
-11.056407 6.6689091 0.13301601 0 90 255
-5.9304519 -4.1254001 0.14579201 0 91 255
-4.9990029 -3.243578 0.148587 0 91 255
-2.0742459 -1.746111 0.138592 0 90 255
-2.075444 -1.730122 0.140753 0 90 255
-9.5688219 0.25070801 0.144289 0 91 255
-8.1538525 0.30478999 0.13801999 0 90 255
-0.80243498 0.63958901 0.13881101 0 90 255
-0.53310299 0.66354901 0.139118 0 90 255
-9.4394789 0.71278697 0.138523 0 90 255
-7.998199 0.79029799 0.140422 0 90 255
-7.9874539 0.80542898 0.13731501 0 90 255
-0.54843903 0.99472702 0.13845199 0 90 255
-8.3887434 1.074782 0.146409 0 91 255
-8.4166346 2.0857611 0.14252099 0 90 255
-8.3883867 2.085351 0.136713 0 90 255
-7.2851129 2.0971389 0.142325 0 90 255
-8.36199 2.124964 0.142718 128 128 128
-10.545969 5.044065 0.144731 0 91 255
-10.432357 5.0458889 0.13613001 0 90 255
-10.535409 5.154922 0.14047 0 90 255
-8.3726587 5.4214482 0.145812 128 128 128
-8.4485617 5.6940408 0.138061 128 128 128
-8.4448605 5.6974392 0.149675 0 91 255
-11.055188 6.6697531 0.136655 0 90 255
-11.084479 6.6959138 0.142189 0 90 255
-8.7732239 6.7202229 0.147943 128 128 128
-10.610228 6.753294 0.136279 0 90 255
-6.2947741 -4.0342941 0.160119 0 91 255
-5.0900211 -3.328136 0.153302 0 91 255
-4.957685 -3.122848 0.161338 0 91 255
-3.2269101 -1.877107 0.15918601 0 91 255
-2.8582871 -1.589012 0.151305 0 91 255
-2.409827 -1.1807665 0.156572 0 91 255
-2.474642 -0.97619498 0.153771 0 91 255
-10.108171 0.109213 0.15460099 0 91 255
-8.8912725 0.65082699 0.15008201 0 91 255
-8.9551296 0.66496801 0.155384 0 91 255
-8.979188 0.67913902 0.155046 0 91 255
-8.4392815 0.79737997 0.15474901 0 91 255
-10.524927 1.462057 0.15193599 0 91 255
-5.341104 1.4719959 0.15690701 0 91 255
-4.8727131 1.733797 0.163333 0 91 255
-8.475338 2.054265 0.16048899 128 128 128
-8.4901075 2.0578101 0.16433901 0 91 255
-8.5756989 2.934238 0.16388699 0 91 255
-8.5880089 3.0174129 0.164263 0 91 255
-8.7430592 3.329983 0.150583 128 128 128
-10.830338 6.8078442 0.151428 0 91 255
-10.845222 6.8250189 0.150521 0 91 255
-6.2955031 -4.0515132 0.166822 0 92 255
-9.6061335 -2.886112 0.17078599 0 92 255
-1.990602 -1.853201 0.170046 0 92 255
-2.897125 -1.719457 0.171134 0 92 255
-5.1400819 -0.098177001 0.178893 0 92 255
-9.5913076 0.225539 0.16898499 0 92 255
-5.3489499 1.609118 0.1653 0 92 255
-8.3913946 2.088861 0.166619 0 92 255
-8.3579788 2.10988 0.176672 128 128 128
-7.7034225 3.1743274 0.1708325 0 92 255
-8.7190866 3.2217801 0.16794799 128 128 128
-8.4337149 5.619061 0.17075901 128 128 128
-8.4432735 5.6272922 0.16625901 0 92 255
0.50447398 -1.272251 0.19437601 0 93 255
-2.637605 -1.049822 0.185348 0 92 255
-10.40243 -1.033957 0.192113 0 93 255
-5.1269002 -0.161837 0.185397 0 92 255
-10.672179 0.50171101 0.18580499 0 92 255
-10.865953 0.79870099 0.19472 0 93 255
-5.1420002 1.50062 0.180457 0 92 255
-1.067748 1.56258 0.190585 0 93 255
-11.12886 1.768598 0.19344901 0 93 255
-6.7397242 1.901817 0.193103 0 93 255
-4.467895 1.937758 0.184292 0 92 255
-4.4916291 2.051857 0.180756 0 92 255
-8.398325 2.2448549 0.188704 128 128 128
-8.4036942 2.2514219 0.192048 0 93 255
-8.4064522 2.2730939 0.185919 128 128 128
-4.1470351 2.5858159 0.191655 0 93 255
-8.5069885 2.611794 0.187134 0 93 255
-8.6824961 3.1167779 0.194261 128 128 128
-7.7414699 3.276638 0.19015799 128 128 128
-7.7219238 3.2830629 0.185651 0 92 255
-8.7506666 3.381459 0.192017 0 93 255
-12.237919 5.3256421 0.18857799 0 93 255
-8.3759298 5.4344878 0.186949 128 128 128
-10.107339 6.953836 0.18004 0 92 255
-7.9512601 -2.84131 0.197308 0 93 255
-9.9673624 -2.3729801 0.209334 0 94 255
-9.8699007 -2.3419759 0.198861 0 93 255
-3.0911219 -1.523324 0.19628701 0 93 255
-2.4002681 -1.185921 0.20002399 0 93 255
-2.3983309 -1.190872 0.200288 0 93 255
-5.0910039 -0.190101 0.207167 0 94 255
-6.8407722 0.16924199 0.209893 0 94 255
-9.697403 0.224738 0.205428 0 0 255
-7.9849582 0.83595097 0.196426 0 93 255
-10.837824 0.931521 0.199747 0 93 255
-7.9743261 1.140339 0.205801 0 93 255
-7.5886078 1.538344 0.206314 0 93 255
-4.896729 1.549095 0.20745499 0 94 255
-1.079605 1.5759391 0.206771 0 93 255
-5.1137009 1.675282 0.198589 0 93 255
-8.4859543 2.0556099 0.196573 128 128 128
-8.379858 2.1013861 0.20219651 128 128 128
-8.3649044 2.1018925 0.197134 0 93 255
-8.4043751 2.252564 0.1962 0 93 255
-8.4197702 2.2923059 0.200064 128 128 128
-8.4141903 2.3015361 0.201533 0 93 255
-8.5681553 2.778826 0.197809 128 128 128
-4.0319991 2.7970991 0.20795 0 94 255
-8.6008081 2.87675 0.19969 128 128 128
-8.576808 2.9025421 0.195898 0 93 255
-7.6475258 3.1950221 0.19916201 0 93 255
-7.5441828 3.197818 0.20074201 0 93 255
-7.5425758 3.2140269 0.2056475 0 93 255
-8.3468657 5.3450961 0.19836301 128 128 128
-11.894718 6.4010382 0.208478 0 94 255
-11.257563 6.6338472 0.198761 0 93 255
-9.9904919 7.1037598 0.20852201 0 94 255
-9.2187109 7.2549 0.198616 0 93 255
-9.218894 7.2664938 0.1981 0 93 255
-8.1390047 -4.5737252 0.21444 0 94 255
-2.4783549 -1.948432 0.216565 0 94 255
-2.878649 -1.465205 0.21607301 0 94 255
-2.5602391 -1.07327 0.218953 0 94 255
-10.440813 -0.169412 0.21013001 0 94 255
-10.5337 -0.155294 0.21682601 0 94 255
-6.9222002 0.21749599 0.220734 0 94 255
-8.0500784 1.169313 0.220165 128 128 128
-8.198041 1.189261 0.221312 0 94 255
-8.5110083 2.054369 0.216525 128 128 128
-8.5028028 2.050838 0.222771 0 94 255
-8.4850321 2.05265 0.215893 0 94 255
-2.121351 2.8457191 0.212798 0 94 255
-2.1455221 2.8864429 0.21157201 0 94 255
-8.6615534 3.066144 0.218013 128 128 128
-7.6895528 3.1236019 0.214029 0 94 255
-5.091074 3.1305361 0.210428 0 94 255
-5.0840631 3.1386421 0.215854 0 94 255
-7.708477 3.1776569 0.221642 0 94 255
-7.6611128 3.2382441 0.212109 0 94 255
-9.0100555 4.1127901 0.211307 128 128 128
-8.5210838 5.3463168 0.211541 0 94 255
-10.515167 6.8465328 0.211853 0 94 255
-10.358596 6.9025369 0.215747 0 94 255
-10.158293 -2.137697 0.231049 0 95 255
-2.428278 -1.192926 0.235183 0 95 255
-10.631577 -0.69790298 0.22503 0 94 255
-7.719851 -0.45028299 0.228953 0 95 255
-6.970819 0.25534901 0.225906 0 94 255
-7.0431042 0.29155901 0.23735 0 95 255
-7.9950099 0.62641603 0.22934701 0 95 255
-8.4350405 0.73720503 0.237983 0 95 255
-9.0179882 0.84126598 0.231648 0 95 255
-9.3786087 0.85702801 0.23299199 0 95 255
-8.4362526 1.031503 0.239977 0 95 255
-8.4306498 1.039282 0.237801 0 95 255
-6.877727 1.742227 0.23418801 0 95 255
-8.7228661 2.004391 0.22712199 0 94 255
-8.4322548 2.3377531 0.236165 128 128 128
-8.5491972 2.868628 0.23106299 0 95 255
-7.654254 3.1731639 0.23672 0 95 255
-8.7454205 3.303884 0.227199 128 128 128
-8.3598537 5.3914852 0.235147 128 128 128
-8.4228287 5.5428519 0.225851 0 94 255
-10.347201 6.9293361 0.225723 0 94 255
-10.046119 6.968956 0.23276401 0 95 255
-9.4989347 7.190639 0.231841 0 95 255
-9.5061255 7.2080221 0.225337 0 94 255
-6.760767 -4.1611099 0.24907 0 95 255
-6.7618008 -4.1543741 0.24677201 0 95 255
-9.9177818 -2.8287759 0.249567 0 96 255
-3.2237251 -1.791043 0.24304099 0 95 255
-9.5685177 -1.2151771 0.245169 0 95 255
-10.540107 -0.83512402 0.24308801 0 95 255
-7.8602719 -0.622334 0.252038 0 96 255
-7.8838592 -0.56390101 0.253198 0 96 255
-7.8818212 -0.486191 0.25199699 0 96 255
-10.35231 0.14764901 0.247582 0 95 255
-7.9553342 1.07722 0.25430301 0 96 255
-6.6647472 1.501191 0.24537 0 95 255
-7.9024882 1.66269 0.24005599 0 95 255
-1.107866 1.712255 0.25179201 0 96 255
-8.4201155 2.076287 0.245271 0 95 255
-8.3565273 2.1486039 0.252235 128 128 128
-8.7147465 3.1198671 0.25022599 0 96 255
-5.118968 3.2686701 0.245015 0 95 255
-8.3768415 5.4352398 0.246594 128 128 128
-12.394855 5.985641 0.241396 0 95 255
-12.595379 6.2490559 0.24242499 0 95 255
-10.16006 -1.877502 0.265937 0 96 255
-10.164785 -1.855626 0.26493901 0 96 255
-2.7333109 -1.667133 0.25893101 0 96 255
-2.587312 -1.093948 0.257911 0 96 255
-6.8456912 0.33873799 0.25510401 0 96 255
-6.854353 0.37455001 0.26536 0 96 255
-5.7313628 0.68088102 0.25858501 0 96 255
-9.9365721 0.72498399 0.26802501 0 96 255
-8.6936445 0.93274802 0.26862901 0 96 255
-8.6355734 0.99455798 0.264061 0 96 255
-8.0609579 1.224993 0.26828501 0 96 255
-7.6721172 1.217389 0.25768101 0 96 255
-5.5537329 1.560963 0.260539 0 96 255
-7.7134881 1.580294 0.25850201 0 96 255
-5.4645081 1.587005 0.26961699 0 96 255
-7.73103 1.600113 0.25641799 0 96 255
-8.4704008 2.053761 0.25733799 128 128 128
-8.4955177 2.057703 0.258499 128 128 128
-8.3742838 2.148735 0.26073501 0 96 255
-9.2338867 2.203007 0.267607 0 96 255
-8.5732822 2.961904 0.26673999 0 96 255
-5.0560708 2.9812679 0.266785 0 96 255
-5.041647 2.9859741 0.26971501 0 96 255
-5.0399361 2.9875979 0.25990301 0 96 255
-7.5450969 3.215039 0.26941901 0 96 255
-8.7598991 3.37658 0.264864 128 128 128
-8.362215 5.2410879 0.261226 0 96 255
-12.531834 6.0327849 0.25766101 0 96 255
-8.9897385 7.3455539 0.268931 0 96 255
-10.610608 -1.2289751 0.27835101 0 97 255
-7.9004741 -0.80840701 0.27584401 0 97 255
-10.873439 -0.311836 0.27255899 0 97 255
-9.4753656 0.71276999 0.27535799 0 97 255
-5.7086921 0.70585501 0.27038199 0 96 255
-8.6974134 0.865623 0.270486 0 97 255
-8.5990295 1.0248049 0.27799499 0 97 255
-8.3266382 1.075789 0.27853701 0 97 255
-8.145875 1.203236 0.27080801 0 97 255
-10.907301 1.369747 0.271853 0 97 255
-1.044902 1.751574 0.27769601 0 97 255
-8.3626785 2.1008565 0.27178699 128 128 128
-5.0699272 2.982548 0.271887 0 97 255
-5.229846 2.994935 0.27832901 0 97 255
-7.7060852 3.1713829 0.27798599 0 97 255
-8.7740335 3.3855619 0.270495 0 97 255
-10.232404 6.7619791 0.27060801 0 97 255
-7.3155742 -4.147727 0.28771001 0 97 255
-10.087293 -2.1507151 0.29003599 0 97 255
-10.182321 -1.891647 0.29035601 0 97 255
-2.877876 -1.692135 0.29604301 0 98 255
-2.6350081 -1.059821 0.28907499 0 97 255
-11.047118 -0.39046299 0.295957 0 98 255
-5.0182238 -0.35186401 0.289105 0 97 255
-5.1138258 -0.25820699 0.28841901 0 97 255
-5.129178 -0.1670685 0.298585 0 98 255
-7.407063 0.18285701 0.287332 0 0 255
-7.7948632 0.34405401 0.298794 128 128 128
-8.3391104 1.043955 0.28759101 0 97 255
-8.0003529 1.149158 0.28557399 0 97 255
-8.2839279 1.211027 0.28766999 0 97 255
-8.0730619 1.205128 0.29443499 128 128 128
-6.0535688 1.540421 0.29839501 0 98 255
-5.246223 1.6416529 0.29653099 0 98 255
-4.9301682 1.7540261 0.294148 0 98 255
-1.116708 1.866495 0.290346 0 97 255
-1.05402 1.871513 0.28843999 0 97 255
-1.084746 1.8876491 0.28804901 0 97 255
-11.315002 1.906877 0.29514799 0 98 255
-8.4904385 2.0522211 0.29508099 128 128 128
-8.4808922 2.050386 0.29623201 0 98 255
-8.301137 2.0836239 0.293832 0 98 255
-8.4215088 2.3077359 0.28759101 128 128 128
-8.4301109 2.3201981 0.296538 128 128 128
-8.4393406 2.3289821 0.29804599 0 98 255
-8.5566168 2.9939771 0.28760001 0 97 255
-8.5849199 3.00491 0.28748 0 97 255
-8.6027918 3.02176 0.29862401 0 98 255
-7.5449309 3.2268081 0.29546899 0 98 255
-5.1435471 3.2442169 0.296996 0 98 255
-7.4557061 3.581094 0.29489601 0 98 255
-2.9533141 4.0917459 0.29212999 0 98 255
-12.431532 5.2331748 0.29724801 0 98 255
-12.382332 5.8001623 0.29387802 0 98 255
-8.8776522 7.0075569 0.29520699 0 98 255
-9.8905849 -2.112566 0.31040299 0 98 255
-10.520348 -1.206373 0.314594 0 99 255
-10.82777 -0.29532599 0.31408 0 99 255
-11.041606 0.62377799 0.30623499 0 98 255
-0.47794101 0.87893897 0.304304 0 98 255
-5.4777861 0.93528402 0.30149001 0 98 255
-5.2462568 1.6452429 0.30506599 0 98 255
-1.1774319 1.8294719 0.31126899 0 98 255
-8.5267277 2.0436516 0.30400199 0 98 255
-8.3675365 2.135509 0.31475699 128 128 128
-8.4337292 2.316963 0.30154899 0 98 255
-7.8103518 2.6083021 0.308422 0 98 255
-7.6496439 3.2032299 0.31140801 0 98 255
-7.6487212 3.2147579 0.30031899 0 98 255
-5.005475 3.3727 0.300091 0 98 255
-12.486027 4.9937091 0.314147 0 99 255
-12.400436 5.691349 0.3053 0 98 255
-12.543243 5.8269038 0.31307799 0 99 255
-11.255852 6.6340432 0.30784199 0 98 255
-7.4739609 -4.3590488 0.329202 0 99 255
-7.3208199 -4.261055 0.316879 0 99 255
-7.2830219 -4.2744508 0.32075301 0 99 255
-7.6215692 -3.687284 0.328881 0 99 255
-3.5444579 -2.2521379 0.31935099 0 99 255
-11.083369 0.59769303 0.315207 0 99 255
-11.406786 0.91029602 0.32825199 0 99 255
-0.60006201 0.90280002 0.32601601 0 99 255
-11.383929 0.91749603 0.324379 0 99 255
-7.9769959 0.93875599 0.31708699 128 128 128
-7.4090791 0.93120098 0.31981301 0 99 255
-8.2128029 1.151091 0.31704599 0 99 255
-11.628471 1.525196 0.32650399 0 99 255
-11.607017 1.526409 0.32686201 0 99 255
-11.571071 1.522716 0.32806 0 99 255
-4.934175 1.7436 0.31882599 0 99 255
-8.2728167 1.791571 0.319464 0 99 255
-8.4246597 2.044548 0.32774001 128 128 128
-8.3665352 2.1331785 0.316641 0 99 255
-7.8225331 2.6248569 0.31691101 0 99 255
-7.8667512 2.710052 0.31543601 0 99 255
-2.1535151 2.8581901 0.319085 0 99 255
-8.5605316 2.8910739 0.32892901 0 99 255
-5.4853201 3.0488491 0.315402 0 99 255
-7.5442591 3.2217641 0.328731 0 99 255
-12.401758 4.184968 0.32976201 0 99 255
-10.673127 5.148036 0.32375601 0 99 255
-12.83256 5.578053 0.32832003 0 99 255
-2.5524621 -2.029304 0.33920899 0 100 255
-2.747577 -1.910099 0.34031001 0 100 255
-3.060333 -1.852901 0.34209999 0 100 255
-10.853409 -1.512241 0.33917099 0 100 255
-10.5792 -0.21944299 0.34060001 0 100 255
-9.4617863 0.701231 0.33298001 0 99 255
-11.457677 0.89282 0.33299699 0 99 255
-7.9633832 0.97954202 0.336144 0 100 255
-0.53704202 0.976623 0.34257099 0 100 255
-8.4899111 2.0489249 0.34170601 128 128 128
-11.931569 2.249238 0.34387299 0 100 255
-7.3883438 2.2403171 0.33291399 0 99 255
-11.926787 2.2553861 0.34343499 0 100 255
-7.4997039 2.4499941 0.344924 0 100 255
-12.017217 2.8586719 0.33538601 0 100 255
-8.6037121 2.8798981 0.335899 128 128 128
-11.571348 3.1067309 0.33574301 0 100 255
-11.61071 3.122961 0.34084001 0 100 255
-7.7150249 3.171051 0.33197799 0 99 255
-7.7116919 3.1850719 0.33976701 0 100 255
-4.7446928 4.0926199 0.337742 0 100 255
-12.719251 4.9941788 0.33234099 0 99 255
-8.4235363 5.336544 0.33645499 0 100 255
-8.4067755 5.5239549 0.34017399 128 128 128
-8.4171438 5.547596 0.33633801 128 128 128
-10.802631 6.7837749 0.332863 0 99 255
-9.9790096 7.024848 0.33715099 0 100 255
-9.6031103 -1.811026 0.3506 0 100 255
-11.083626 -1.536775 0.351814 0 100 255
-10.678234 -1.188008 0.359552 0 101 255
-10.751071 -0.78001899 0.34872699 0 100 255
-10.730946 -0.77620298 0.355064 0 101 255
-10.700604 -0.76643997 0.35812399 0 101 255
-10.998545 -0.51971602 0.35171399 0 100 255
-8.7996588 0.688272 0.34612399 0 100 255
-8.1437826 1.182249 0.34896299 0 100 255
-8.137825 1.1927741 0.34781599 0 100 255
-8.0858593 1.2052571 0.34954801 0 100 255
-6.6618862 1.488953 0.355075 0 101 255
-5.2725849 1.594646 0.348178 0 100 255
-9.7828007 1.791384 0.35332999 0 100 255
-8.5116796 2.0501261 0.349002 128 128 128
-8.4106522 2.083585 0.349998 0 100 255
-11.828283 2.2103751 0.34542301 0 100 255
-11.947013 2.247772 0.34874099 0 100 255
-7.4123201 2.270386 0.35315901 128 128 128
-4.1536651 2.4568009 0.35445401 0 100 255
-12.040152 2.872674 0.35015601 0 100 255
-12.083058 2.8812649 0.34949201 0 100 255
-8.6100845 2.906426 0.35160899 128 128 128
-8.6092901 2.906662 0.35279199 0 100 255
-5.0823112 3.061075 0.351358 0 100 255
-11.564722 3.095494 0.34962699 0 100 255
-5.1284952 3.2425711 0.35850599 0 101 255
-3.5184791 3.7107069 0.358459 0 101 255
-4.7025299 4.050683 0.34641901 0 100 255
-4.1395059 4.7482252 0.35225299 0 100 255
-4.226687 4.8733001 0.35704699 0 101 255
-8.4265394 5.5976849 0.35713401 128 128 128
-8.4723825 5.7196822 0.351163 128 128 128
-8.5160961 5.792583 0.34760001 0 100 255
-8.5013008 5.7999902 0.356457 0 101 255
-10.659645 -1.184011 0.366175 0 101 255
-10.712203 0.45039999 0.36774799 0 101 255
-9.2921457 0.58915597 0.37463 0 101 255
-0.64788502 0.67328799 0.36146 0 101 255
-0.58006901 0.70069301 0.365363 0 101 255
-7.9487081 0.91876698 0.37299499 0 101 255
-8.1782999 1.203131 0.36693501 0 101 255
-6.666882 1.517396 0.36302799 0 101 255
-8.4876642 2.055244 0.367724 128 128 128
-8.3619242 2.1029065 0.36997235 128 128 128
-12.244226 2.9321439 0.36668399 0 101 255
-8.6793795 3.073411 0.37105 128 128 128
-7.5460911 3.203069 0.36956701 0 101 255
-8.7263536 3.228122 0.36850899 128 128 128
-12.739061 4.0381341 0.36710501 0 101 255
-4.7697649 4.6024132 0.36866501 0 101 255
-8.3512726 5.3607621 0.36201799 128 128 128
-8.9863787 7.3327422 0.37071699 0 101 255
-3.2125001 -2.0609021 0.38733 0 102 255
-5.078433 0.018144 0.386177 0 102 255
-8.8863878 0.57672101 0.377841 0 102 255
-0.49960399 0.73804599 0.37946701 0 102 255
-7.9979939 0.92324299 0.387568 0 102 255
-8.9050465 0.93946999 0.38678399 0 102 255
-8.1960049 1.18048 0.37632301 0 102 255
-5.1355529 1.346486 0.384983 0 102 255
-5.0528531 1.503927 0.38147199 0 102 255
-6.0981722 1.539277 0.376026 0 101 255
-8.4881353 2.0535729 0.38882199 128 128 128
-8.381979 2.1361251 0.38178 0 102 255
-8.5738239 2.9271071 0.38804299 0 102 255
-4.9687691 2.9321189 0.388468 0 102 255
-5.0996709 3.2211609 0.37792 0 102 255
-7.5794468 3.2342229 0.37952101 0 102 255
-9.0251293 4.1405849 0.38705599 0 102 255
-4.8695731 4.700109 0.37613699 0 101 255
-8.1095648 5.0367832 0.38815001 0 102 255
-10.958844 5.176806 0.37510499 0 101 255
-10.824122 6.727273 0.37645999 0 102 255
-9.2241917 7.2490711 0.38223401 0 102 255
-5.0116682 -3.2529781 0.40194401 0 103 255
-4.9773259 -3.1932459 0.404724 0 103 255
-10.620914 -0.19092999 0.39034501 0 102 255
-6.9599671 -0.039797999 0.399423 0 103 255
-8.1833372 1.197772 0.39250001 0 102 255
-7.5021172 1.906793 0.39745301 0 103 255
-8.5017595 2.0611849 0.395794 0 102 255
-8.4388695 2.07724 0.39608499 0 102 255
-1.967507 2.6774111 0.39014599 0 102 255
-7.709219 3.1824529 0.40382999 0 103 255
-7.6550279 3.1941631 0.39866599 0 103 255
-7.651567 3.1980395 0.39989102 0 103 255
-4.6885791 4.4534702 0.393778 0 102 255
-4.356936 5.0793371 0.404284 0 103 255
-10.874713 5.1711612 0.40143099 0 103 255
-8.3987246 5.5238471 0.40328699 128 128 128
-10.778581 6.7510791 0.403229 0 103 255
-9.3188896 7.2434559 0.397854 0 103 255
-9.224556 7.2531099 0.39926201 0 103 255
-5.096983 -0.190993 0.417658 0 103 255
-7.414351 1.403602 0.415773 0 103 255
-4.7741718 1.603031 0.41970199 0 104 255
-7.7269721 3.1880181 0.409953 0 103 255
-7.6604371 3.2093329 0.41042 0 103 255
-7.5489001 3.2050426 0.40876734 0 103 255
-8.7467518 6.5685372 0.41480201 0 103 255
-10.828246 6.8125911 0.409383 0 103 255
-10.290732 6.8915558 0.411098 0 103 255
-9.5951853 7.1430211 0.40918201 0 103 255
-10.039448 -2.6335981 0.43059501 0 104 255
-10.491314 -1.954201 0.424243 0 104 255
-10.189896 -1.8695379 0.42209399 0 104 255
-10.69291 -1.660966 0.42571399 0 104 255
-10.844712 -0.39909101 0.430361 0 104 255
-7.7510118 -0.29673201 0.43360001 0 0 255
-4.874557 -0.065324999 0.42094499 0 104 255
-5.1359568 0.13628399 0.42424601 0 104 255
-2.6657369 0.86427402 0.42142501 0 104 255
-8.0542135 1.1305569 0.425051 128 128 128
-6.8421488 1.4921941 0.426754 0 104 255
-4.3010702 1.551643 0.42591801 0 104 255
-4.9953179 1.714039 0.42521301 0 104 255
-8.4737921 2.036314 0.425796 0 104 255
-8.4639654 2.444072 0.424824 128 128 128
-8.4770432 2.4493141 0.43085599 0 104 255
-7.727942 3.225461 0.42811501 0 104 255
-8.4372406 5.599791 0.42257899 128 128 128
-11.607283 6.6432052 0.42375499 0 104 255
-10.779955 6.7700658 0.42249101 0 104 255
-10.31471 6.914567 0.420627 0 104 255
-10.322517 6.9171872 0.42216301 0 104 255
-9.9418755 7.0256982 0.421444 128 128 128
-9.4355049 7.2085128 0.421588 0 104 255
-10.067895 -2.6583991 0.43615699 0 104 255
-9.9915829 -2.628901 0.44189101 0 105 255
-3.0437019 -2.3801489 0.44886699 0 105 255
-3.041626 -2.2808559 0.43825799 0 104 255
-10.721331 -1.7327991 0.441625 0 105 255
-7.7518249 -0.32981101 0.43770999 0 0 255
-4.952435 0.060229 0.44772601 0 105 255
-5.1288381 0.15315001 0.43599299 0 104 255
-5.0907779 0.759426 0.443387 0 105 255
-8.0965052 1.2230411 0.443432 0 105 255
-8.0691252 1.223037 0.44791901 128 128 128
-7.4042702 1.340178 0.44848099 0 105 255
-8.6060314 2.047688 0.44939899 0 105 255
-8.5096045 2.0520091 0.44493499 128 128 128
-1.398509 2.720118 0.435105 0 104 255
-8.5604458 2.8977571 0.442094 0 105 255
-8.5886765 3.012687 0.437987 0 104 255
-8.3445911 5.3501019 0.43598101 128 128 128
-8.4065056 5.5281382 0.448522 128 128 128
-10.57658 6.8362498 0.44292799 0 105 255
-10.636069 6.8485861 0.43631601 0 104 255
-10.604897 6.8622751 0.44367 0 105 255
-10.082555 6.982379 0.436887 0 104 255
-9.7230558 7.133142 0.44237399 0 105 255
-9.4451265 7.1790652 0.44523999 0 105 255
-5.0188541 0.070649996 0.45997801 0 105 255
-8.5362511 1.01442 0.46300799 0 106 255
-8.0152407 1.0328211 0.45555899 128 128 128
-8.0717669 1.20898 0.45842201 0 105 255
-4.9468842 1.566064 0.454983 0 105 255
-4.7187572 1.7352459 0.45256299 0 105 255
-4.7182212 1.753082 0.459223 0 105 255
-8.4508533 2.021049 0.46395001 0 106 255
-8.4659891 2.032114 0.45718199 128 128 128
-8.4718885 2.0408089 0.45681801 0 105 255
-8.3716927 2.0986619 0.45361999 128 128 128
-8.3681126 2.0975609 0.452629 0 105 255
-8.4400597 2.339829 0.46414199 128 128 128
-2.1214049 2.846714 0.450353 0 105 255
-2.141866 2.878263 0.45768899 0 105 255
-8.5679665 2.935668 0.452066 0 105 255
-7.7205248 3.194911 0.46244499 0 106 255
-7.6901612 3.184412 0.456644 128 128 128
-7.6517529 3.1933141 0.46233499 0 106 255
-7.6920829 3.1981969 0.464789 0 106 255
-7.64888 3.210865 0.46262899 0 106 255
-11.359076 6.6070461 0.46336201 0 106 255
-11.343347 6.6065469 0.46016601 0 105 255
-8.8055038 6.8075719 0.46282101 128 128 128
-9.708025 7.0826912 0.45522499 0 105 255
-6.0437641 -3.2695091 0.46511799 0 106 255
-2.36902 -1.220058 0.47114199 0 106 255
-8.7211771 0.9526335 0.4711045 0 106 255
-8.3466253 1.077934 0.474866 0 106 255
-8.3411131 1.0833679 0.46789601 0 106 255
-8.1501083 1.182693 0.46862599 0 106 255
-0.445591 1.1812299 0.47864801 0 106 255
-6.8629618 1.6324281 0.47240901 0 106 255
-4.926373 1.6401269 0.47317901 0 106 255
-6.1089902 1.656814 0.46531299 0 106 255
-10.062398 1.69101 0.47648001 0 106 255
-5.0611372 1.700912 0.478908 128 128 128
-6.1806469 1.719087 0.47552201 0 106 255
-4.6883302 1.9348789 0.46907699 0 106 255
-8.4792328 2.043294 0.47529799 0 106 255
-8.5097752 2.0554869 0.46994799 128 128 128
-8.4288015 2.0783529 0.479238 0 106 255
-8.4572649 2.337357 0.47080299 0 106 255
-8.497467 2.4803481 0.47139001 0 106 255
-8.5667429 2.74243 0.475501 128 128 128
-8.5610504 2.747864 0.46914899 0 106 255
-2.1752779 2.8989429 0.46638501 0 106 255
-9.0308914 4.1471128 0.47975501 0 106 255
-8.4130793 5.500102 0.477662 0 106 255
-8.4835281 5.751606 0.47368601 128 128 128
-11.917578 6.425693 0.466481 0 106 255
-11.368917 6.6302242 0.46705201 0 106 255
-8.8618279 6.9719229 0.47952899 0 106 255
-9.4130507 7.18187 0.47846401 0 106 255
-4.9213629 -0.017597999 0.49458501 0 107 255
-4.9961271 0.073537 0.48603299 0 107 255
-8.5701952 0.96818602 0.482274 0 107 255
-7.8509002 1.107954 0.48829901 0 107 255
-8.075798 1.167679 0.480084 0 106 255
-6.0928979 1.5309809 0.48424101 0 107 255
-4.8994761 1.723994 0.49184999 0 107 255
-5.4008999 1.852376 0.494183 0 107 255
-8.4332514 2.0800059 0.48459899 0 107 255
-8.55163 2.925421 0.489977 0 107 255
-8.7499971 3.2958541 0.48334348 128 128 128
-9.575839 7.1654339 0.48536599 0 107 255
-9.4872618 -2.6466539 0.496966 0 107 255
-9.9693127 -1.989121 0.50616902 0 108 255
-7.4526572 -0.143957 0.499571 0 0 255
-4.9798851 0.010345 0.50219297 0 107 255
-4.9493299 0.125284 0.50103801 0 107 255
-6.5759702 0.18648399 0.50847399 0 108 255
-4.6471372 0.29412001 0.50989097 0 108 255
-8.0453558 1.135265 0.50579703 128 128 128
-8.0686674 1.217961 0.49866199 128 128 128
-7.4402261 1.613919 0.50515598 0 108 255
-8.5042667 2.053709 0.495253 128 128 128
-8.3870697 2.1802311 0.50449997 128 128 128
-8.3700314 2.183964 0.495648 0 107 255
-8.5394974 2.6472659 0.49594101 128 128 128
-8.0578556 2.6543739 0.50443399 0 108 255
-8.5810509 2.7363949 0.49578699 0 107 255
-7.7138429 2.7484901 0.499405 0 107 255
-8.5918159 2.864821 0.50941902 0 108 255
-8.3011761 5.1923852 0.49625 128 128 128
-10.420877 6.871985 0.49730101 0 107 255
-9.1659718 7.3157258 0.50968999 0 108 255
-3.0977249 -1.842461 0.51439601 0 108 255
-7.9466348 0.019191001 0.51497698 0 0 255
-10.748845 0.069638997 0.52197403 0 108 255
-4.888165 0.17007799 0.52393699 0 108 255
-4.8401642 0.73666602 0.522039 0 108 255
-0.51473302 0.939125 0.52067101 0 108 255
-8.6294041 1.340981 0.52251399 0 108 255
-6.2419529 1.5890909 0.52499902 0 109 255
-8.3604345 2.1442871 0.515939 0 108 255
-8.4043026 2.2973886 0.519409 0 108 255
-7.5924902 2.678062 0.51647103 0 108 255
-8.5721865 3.0085731 0.51594502 0 108 255
-7.6824541 3.1809821 0.522228 0 108 255
-7.5658102 3.2305009 0.51936501 0 108 255
-7.7603412 3.293669 0.52226901 0 108 255
-12.529765 4.9938812 0.512802 0 108 255
-12.073345 6.3537731 0.511527 0 108 255
-9.9418259 6.93437 0.51292998 0 108 255
-4.345645 -3.3468521 0.53056902 0 109 255
-4.510087 -3.123122 0.53661102 0 109 255
-4.4737449 -3.0685461 0.53499103 0 109 255
-10.218556 -2.256001 0.53358001 0 109 255
-2.886235 -1.817376 0.53786498 0 109 255
-10.119633 -1.7651041 0.52802497 0 109 255
-0.435002 -0.95356899 0.52569503 0 109 255
-10.775834 0.089152999 0.53125697 0 109 255
-4.9200649 0.131106 0.52815098 0 109 255
-4.8777471 0.174426 0.53122902 0 109 255
