-1.834423 -1.634333 0.037997 0 63 255
-8.058299 1.211729 -0.250278 0 56 255
-1.841460 -1.612038 -0.157750 0 58 255
-2.833272 -1.811218 0.086846 0 64 255
-4.869573 4.700109 0.376137 0 72 255
-4.864661 4.012906 2.356820 0 122 255
-3.772148 -0.124723 2.319100 0 121 255
-6.737846 1.937223 -0.211248 0 57 255
-8.586738 0.837945 1.117035 0 90 255
-5.266733 5.328286 2.282448 0 120 255
-2.416378 0.473347 0.084724 0 64 255
-5.846950 -2.068887 2.608963 0 128 255
-5.000588 -3.266424 1.864634 0 109 255
-7.390688 -4.362915 2.637844 0 129 255
-4.569008 2.598480 0.062726 0 64 255
-7.645956 1.859847 1.871543 0 109 255
-6.781993 -2.800095 2.271255 0 119 255
-5.072678 -3.327725 1.907945 0 110 255
-4.431638 -2.873361 0.559629 0 76 255
-4.026066 0.913226 2.648154 0 129 255
-2.121956 2.799288 2.388038 0 122 255
-5.633531 -0.997942 2.677431 0 130 255
-8.608897 -2.415863 0.582351 0 77 255
-1.817332 -1.609627 2.147492 0 116 255
-1.710528 -1.512665 0.698479 0 80 255
-5.321268 -3.488083 0.979496 0 87 255
-6.164276 1.515649 2.297363 0 120 255
-7.301448 -2.531512 2.645428 0 129 255
-4.301070 1.551643 0.425918 0 73 255
-9.362644 2.179558 -0.302620 0 55 255
-8.038890 -3.880372 2.388077 0 122 255
-9.561732 -5.092233 2.347554 0 121 255
-7.951278 -4.549650 2.175936 0 117 255
-8.844476 -3.302323 0.851250 0 84 255
-8.490956 -3.137920 -0.100739 0 60 255
-4.771551 4.704775 2.036028 0 114 255
-8.621468 1.269790 1.395772 0 97 255
-2.994131 -1.975987 -0.191525 0 57 255
-4.407743 2.822419 -0.172428 0 58 255
-4.729818 4.108517 2.092734 0 115 255
-5.184940 1.787193 1.159490 0 91 255
-4.920159 1.681682 -0.231707 0 56 255
-5.827722 1.416204 0.655124 0 79 255
-4.596212 2.194736 2.158220 0 117 255
-10.182321 -1.891647 0.290356 0 70 255
-8.527574 -3.120258 -0.194816 0 57 255
-1.423624 1.119922 -0.042600 0 61 255
-1.818626 -1.603173 2.137774 0 116 255
-1.541628 -0.434002 -0.245563 0 56 255
-1.957393 -1.650327 2.664245 0 129 255
-5.752335 -2.678532 2.499779 0 125 255
-10.217213 -2.951645 0.744056 0 81 255
-2.984999 1.430357 2.655574 0 129 255
-2.134660 2.830680 1.292722 0 95 255
-2.248108 -1.747938 -0.222785 0 57 255
-2.007039 -1.716009 1.151065 0 91 255
-4.520541 2.223303 1.660415 0 104 255
-6.556816 -3.977116 1.159776 0 91 255
-4.975082 1.881890 0.810868 0 83 255
-1.459916 -1.127908 2.653940 0 129 255
-2.504185 0.790850 2.726248 0 131 255
-10.528123 -2.394504 0.794323 0 82 255
-9.386769 -4.818932 -0.148937 0 59 255
-10.876878 -1.559489 2.131954 0 116 255
-8.000353 1.149158 0.285574 0 69 255
-9.037809 -3.080759 -0.305236 0 55 255
-9.603110 -1.811026 0.350600 0 71 255
-8.487086 2.099731 2.101821 0 115 255
-1.187678 1.116959 -0.180128 0 58 255
-4.644232 3.554314 -0.183924 0 58 255
-3.542057 -1.157835 2.383883 0 122 255
-2.254190 -1.764270 -0.184350 0 58 255
-4.469197 2.105809 1.020120 0 88 255
-5.071684 1.745935 -0.237846 0 56 255
-7.002476 1.245957 2.342218 0 121 255
-7.359522 1.800878 2.357258 0 122 255
-6.751929 -2.620695 1.684990 0 105 255
-3.025869 0.168218 2.702226 0 130 255
-2.950249 0.028275 -0.257480 0 56 255
-2.465071 0.698823 -0.250708 0 56 255
-3.273492 -2.815657 2.466619 0 124 255
-2.266385 -1.362340 2.642333 0 129 255
-4.282887 1.902206 2.417207 0 123 255
-2.877894 1.219802 2.696317 0 130 255
-1.964226 1.235644 -0.254597 0 56 255
-2.031696 -1.704144 -0.157833 0 58 255
-7.902488 1.662690 0.240056 0 68 255
-9.377375 -2.737238 -0.286906 0 55 255
-9.652763 -2.814276 1.914110 0 110 255
-9.606133 -2.886112 0.170786 0 67 255
-8.009818 -3.337696 2.316839 0 121 255
-8.012327 0.983371 2.314470 0 121 255
-7.028849 -1.376849 2.603353 0 128 255
-9.991583 -2.628901 0.441891 0 73 255
-2.285152 -0.071419 -0.265586 0 56 255
-2.280041 -0.460334 -0.252841 0 56 255
-3.083966 -0.102323 -0.263444 0 56 255
-2.585226 0.196758 -0.257110 0 56 255
-3.070567 -0.095271 -0.262309 0 56 255
-2.243398 -0.120685 -0.254462 0 56 255
-11.083626 -1.536775 0.351814 0 71 255
-4.356936 5.079337 0.404284 0 72 255
-6.388710 0.391371 1.263595 0 94 255
-8.155938 1.204353 1.277614 0 94 255
-7.459849 1.817029 2.386512 0 122 255
-9.261056 -4.783309 1.038571 0 88 255
-8.063146 1.062201 2.379726 0 122 255
-2.081562 -0.700809 -0.258278 0 56 255
-2.210649 2.967725 1.252316 0 94 255
-2.153515 2.858190 0.319085 0 70 255
-10.306414 -2.694270 0.709727 0 80 255
-4.641362 -0.559662 2.523660 0 126 255
-7.302186 -4.388911 2.614217 0 128 255
-10.634822 -2.408532 2.068670 0 114 255
-4.431373 2.095663 2.713749 0 131 255
-10.313036 -2.313496 0.773572 0 82 255
-10.072381 -1.841567 0.633830 0 78 255
-10.871944 -1.505966 0.765337 0 82 255
-7.385104 0.602249 1.798770 0 108 255
-10.802350 -1.538303 2.062409 0 114 255
-11.779408 0.319744 3.195460 0 143 255
-10.509906 -2.375059 0.799124 0 82 255
-1.608703 0.174923 -0.256534 0 56 255
-1.929891 0.096482 -0.252781 0 56 255
-1.976845 0.178450 -0.258679 0 56 255
-1.724103 0.918676 -0.254284 0 56 255
-3.030357 -1.027203 -0.268735 0 56 255
-2.495300 0.708432 -0.258251 0 56 255
-7.188576 -4.115917 -0.319967 0 54 255
-7.348464 -4.214480 0.981108 0 87 255
-5.260696 -3.153705 2.083737 0 115 255
-10.794861 -1.492724 0.763797 0 82 255
-4.169176 4.811630 1.452397 0 99 255
-5.330675 0.214962 0.582704 0 77 255
-4.476194 5.177277 1.550913 0 101 255
-6.837387 0.206161 1.016472 0 88 255
-4.468961 2.180011 0.068594 0 64 255
-4.360987 1.946426 1.353480 0 96 255
-1.956182 -0.545368 -0.256479 0 56 255
-4.419132 -1.696752 -0.276749 0 55 255
-7.320820 -4.261055 0.316879 0 70 255
-7.473961 -4.359049 0.329202 0 71 255
-9.296933 -4.837330 2.206851 0 118 255
-6.829153 -4.173581 1.210617 0 93 255
-5.259856 1.785763 1.277538 0 94 255
-3.856280 -3.147707 2.606225 0 128 255
-6.969567 -2.925069 -0.214228 0 57 255
-5.321744 -2.232447 2.022207 0 113 255
-11.295434 -0.149498 0.737578 0 81 255
-4.981321 3.851241 2.665643 0 129 255
-4.736323 4.121900 2.098588 0 115 255
-10.881021 -1.492615 2.037934 0 114 255
-11.077393 -0.865393 2.034564 0 114 255
-4.341559 0.831558 -0.116106 0 59 255
-2.121405 2.846714 0.450353 0 74 255
-6.266550 -2.432607 1.722163 0 106 255
-2.577938 0.192200 -0.253041 0 56 255
-4.817950 1.987473 -0.129211 0 59 255
-6.400276 1.543842 0.714590 0 80 255
-5.035338 -3.263462 0.555999 0 76 255
-4.555361 -3.100284 2.666856 0 129 255
-2.424555 0.487993 -0.234365 0 56 255
-11.138369 -1.527685 0.808326 0 83 255
-9.556341 1.442660 2.373278 0 122 255
-4.932140 1.823975 1.237598 0 93 255
-9.017860 1.354835 2.275360 0 120 255
-3.231049 -1.678566 -0.100883 0 60 255
-4.824554 3.721266 -0.197739 0 57 255
-5.011494 -3.252383 2.653689 0 129 255
-2.261146 -1.001791 -0.271650 0 55 255
-3.531921 -1.159493 2.403433 0 123 255
-4.936986 1.697460 -0.148007 0 59 255
-7.567879 1.421492 1.035041 0 88 255
-6.294774 -4.034294 0.160119 0 66 255
-6.834243 -2.895594 2.309063 0 120 255
-10.202518 -4.578210 2.454658 0 124 255
-2.064731 -1.680618 0.133238 0 66 255
-2.075444 -1.730122 0.140753 0 66 255
-2.268879 -1.643003 0.049550 0 64 255
-2.863189 -1.509484 -0.122666 0 59 255
-2.878323 -1.488752 -0.183454 0 58 255
-2.844680 -1.442770 -0.098835 0 60 255
-1.713288 -1.502813 0.675354 0 79 255
-1.994387 -1.731360 0.728581 0 81 255
-2.264741 -1.813224 -0.172159 0 58 255
-7.588608 1.538344 0.206314 0 67 255
-8.066637 1.682679 0.870679 0 84 255
-8.050078 1.169313 0.220165 0 68 255
-4.821304 -3.023067 -0.281224 0 55 255
-6.294333 -4.018863 0.648563 0 79 255
-3.045657 -2.972319 2.318288 0 121 255
-2.792330 -0.404908 -0.268997 0 55 255
-2.324716 -1.244810 0.033724 0 63 255
-2.429266 -1.546429 -0.270432 0 55 255
-2.367743 -1.017438 0.063601 0 64 255
-2.421396 -1.446613 -0.188785 0 58 255
-2.474642 -0.976195 0.153771 0 66 255
-1.781674 -1.562120 -0.222053 0 57 255
-3.074649 -0.106661 -0.261640 0 56 255
-2.431733 -1.563837 -0.275838 0 55 255
-2.871633 -1.829988 -0.216315 0 57 255
-3.322520 -1.781917 -0.091889 0 60 255
-3.222377 -1.725249 -0.176721 0 58 255
-2.253802 -1.796971 -0.243525 0 56 255
-1.679649 -1.606858 -0.183807 0 58 255
-1.711856 -1.600376 0.644402 0 79 255
-2.412112 -1.492197 -0.246305 0 56 255
-2.926496 -1.946893 -0.241499 0 56 255
-2.074246 -1.746111 0.138592 0 66 255
-4.360140 -1.579700 2.724785 0 131 255
-4.651375 0.217541 2.683025 0 130 255
-1.759377 -1.610446 -0.219823 0 57 255
-3.942859 -3.253617 2.686638 0 130 255
-1.700158 -1.531228 0.926136 0 86 255
-3.496810 -1.906955 -0.141924 0 59 255
-6.193460 -3.989299 1.850731 0 109 255
-7.118415 -3.026348 2.396618 0 123 255
-2.753534 -1.498224 0.588485 0 77 255
-1.984160 -1.712550 0.727247 0 81 255
-1.712899 -1.572648 0.636304 0 78 255
-8.061419 1.184192 -0.253905 0 56 255
-4.260975 -3.116540 2.583326 0 127 255
-3.060622 -2.845203 2.223066 0 118 255
-4.550274 -3.100254 2.178991 0 117 255
-11.046780 -0.857083 2.017603 0 113 255
-10.555099 -0.035528 -0.310577 0 54 255
-11.345467 -0.156807 1.414457 0 98 255
-10.751071 -0.780019 0.348727 0 71 255
-2.247083 -0.961104 -0.259810 0 56 255
-2.133519 -1.741866 1.185468 0 92 255
-2.262319 -1.775676 -0.169582 0 58 255
-3.235639 -0.896526 -0.252713 0 56 255
-4.473745 -3.068546 0.534991 0 76 255
-4.521366 -3.077596 2.651505 0 129 255
-3.431381 -1.999648 -0.181641 0 58 255
-5.244387 0.798113 -0.179001 0 58 255
-11.131116 -0.846706 0.788572 0 82 255
-10.609080 0.033491 2.062466 0 114 255
-2.492200 -1.405062 -0.237297 0 56 255
-3.132677 -0.186864 -0.252155 0 56 255
-4.818273 -1.630545 2.740874 0 131 255
-4.766046 -2.053537 2.941299 0 136 255
-2.689993 -2.816021 1.443330 0 99 255
-2.907386 -2.963310 2.369262 0 122 255
-10.181417 -0.087865 -0.254118 0 56 255
-4.492593 -2.933329 -0.278265 0 55 255
-4.582342 -3.038160 -0.291738 0 55 255
-6.413934 -3.192657 2.658240 0 129 255
-8.345098 -3.073659 2.122717 0 116 255
-6.578129 -4.037286 2.587484 0 127 255
-1.910388 -1.721396 1.175395 0 92 255
-4.494927 -3.149924 0.049914 0 64 255
-2.680367 -2.772787 1.409373 0 98 255
-2.692462 -2.771809 1.303334 0 95 255
-9.568822 0.250708 0.144289 0 66 255
-4.589403 -3.131291 1.456501 0 99 255
-6.691026 -2.500730 1.536573 0 101 255
-4.658331 -1.376787 -0.281135 0 55 255
-11.068875 -0.845970 0.794966 0 82 255
-8.840797 -3.738481 1.987336 0 112 255
-1.878513 -1.109117 -0.268288 0 56 255
-2.406249 -0.727574 -0.252111 0 56 255
-2.255513 -1.690415 0.584722 0 77 255
-2.003558 -1.835137 -0.161759 0 58 255
-2.234320 -1.524951 0.041548 0 63 255
-2.560239 -1.073270 0.218953 0 68 255
-2.878649 -1.465205 0.216073 0 68 255
-3.097725 -1.842461 0.514396 0 75 255
-2.957844 -1.633322 -0.073120 0 60 255
-2.918375 -1.566176 -0.094091 0 60 255
-3.223725 -1.791043 0.243041 0 68 255
-2.886235 -1.817376 0.537865 0 76 255
-4.764978 -2.978670 0.858319 0 84 255
-3.544458 -2.252138 0.319351 0 70 255
-4.936290 -2.142860 2.714390 0 131 255
-9.591308 0.225539 0.168985 0 67 255
-8.606539 -0.998750 2.783454 0 132 255
-4.075558 -1.831012 2.657658 0 129 255
-8.629404 1.340981 0.522514 0 75 255
-10.579200 -0.219443 0.340600 0 71 255
-3.275845 -1.847432 -0.135323 0 59 255
-4.658756 0.221396 2.692292 0 130 255
-5.977223 -3.063443 2.637543 0 129 255
-9.299421 0.188395 -0.248983 0 56 255
-11.272532 -0.158453 0.768465 0 82 255
-3.090858 -0.783853 -0.258814 0 56 255
-2.443786 -2.578758 1.517021 0 100 255
-4.934669 -1.996081 0.092019 0 65 255
-5.716146 -3.568337 0.594255 0 77 255
-7.850900 1.107954 0.488299 0 75 255
-8.650594 0.459200 1.342981 0 96 255
-10.145617 0.250836 2.729512 0 131 255
-3.075395 -2.979440 2.329699 0 121 255
-8.164655 0.416313 0.545805 0 76 255
-9.607008 -3.021356 0.704024 0 80 255
-10.946406 -1.543216 2.090538 0 115 255
-7.047600 -2.616492 2.286717 0 120 255
-4.999003 -3.243578 0.148587 0 66 255
-7.132528 0.453216 1.321478 0 96 255
-8.418822 1.348712 1.291411 0 95 255
-9.006010 0.511222 1.394844 0 97 255
-7.974326 1.140339 0.205801 0 67 255
-7.768805 0.613888 1.182391 0 92 255
-2.439465 -1.127626 -0.236988 0 56 255
-2.589868 -1.055275 -0.212524 0 57 255
-2.552261 -1.031995 -0.226216 0 57 255
-2.616808 -1.024003 -0.214187 0 57 255
-2.517302 -1.054542 -0.162733 0 58 255
-2.552176 -1.065106 -0.241169 0 56 255
-2.507063 -1.103091 -0.137816 0 59 255
-2.545132 -1.048414 -0.184141 0 58 255
-2.506991 -1.096929 -0.133183 0 59 255
-3.744037 -1.025017 -0.261849 0 56 255
-8.071568 1.202049 1.232410 0 93 255
-7.904109 0.581368 1.527751 0 101 255
-8.952495 1.427347 0.554420 0 76 255
-8.205424 1.728229 1.204342 0 93 255
-12.848991 3.052609 0.880833 0 84 255
-2.408936 -1.180550 0.157354 0 66 255
-2.549252 -1.072397 -0.197079 0 57 255
-2.485250 -1.079070 -0.178428 0 58 255
-2.557389 -1.144673 -0.112731 0 59 255
-2.607908 -1.104178 -0.149004 0 59 255
-3.209104 -0.885612 -0.237581 0 56 255
-4.510087 -3.123122 0.536611 0 76 255
-7.065872 1.272062 2.369452 0 122 255
-8.570362 2.184246 2.827385 0 134 255
-6.801991 1.143084 0.958269 0 86 255
-4.513227 -3.333969 0.576069 0 77 255
-8.222086 0.640052 1.634227 0 103 255
-3.121382 -0.244069 -0.258723 0 56 255
-2.533401 -1.054183 -0.207378 0 57 255
-2.996734 -0.548843 -0.245934 0 56 255
-2.482957 -1.144660 -0.047006 0 61 255
-3.016231 -0.546665 -0.256978 0 56 255
-2.484217 -1.102040 -0.187757 0 58 255
-2.650105 -1.096034 -0.198392 0 57 255
-3.179507 -0.664951 -0.261420 0 56 255
-4.820533 -2.062638 -0.252580 0 56 255
-3.772421 -0.922601 -0.258423 0 56 255
-8.498470 2.054705 -0.242113 0 56 255
-2.622646 -1.039302 -0.219266 0 57 255
-2.963853 -0.801143 -0.275927 0 55 255
-11.617637 -0.877064 1.481498 0 100 255
-7.776506 1.342375 1.086188 0 90 255
-8.275427 1.598958 2.665911 0 129 255
-2.400268 -1.185921 0.200024 0 67 255
-2.410718 -1.180983 0.155790 0 66 255
-2.428278 -1.192926 0.235183 0 68 255
-2.521427 -1.062390 -0.161529 0 58 255
-2.774021 -0.828038 -0.244373 0 56 255
-2.720817 -1.092785 -0.251959 0 56 255
-3.069808 -1.034422 -0.405627 0 52 255
-2.815891 -1.054697 -0.251435 0 56 255
-2.826417 -1.070468 -0.262747 0 56 255
-3.284576 -0.882445 -0.261792 0 56 255
-2.855321 -1.791546 -0.134426 0 59 255
-3.118808 -1.702083 -0.180082 0 58 255
-2.903641 -1.883130 -0.214030 0 57 255
-3.115077 -1.897289 -0.124047 0 59 255
-3.093060 -1.855900 -0.120523 0 59 255
-2.930344 -1.989323 -0.235431 0 56 255
-3.316553 -1.846295 -0.117648 0 59 255
-2.536243 -1.100664 -0.163808 0 58 255
-3.106051 -0.246723 -0.252225 0 56 255
-3.071369 -0.576820 -0.260130 0 56 255
-2.444952 -1.150943 -0.186366 0 58 255
-2.711817 -1.053432 -0.238118 0 56 255
-2.652322 -1.008661 -0.254242 0 56 255
-2.642640 -1.079220 -0.190202 0 57 255
-2.703285 -1.033459 -0.227211 0 57 255
-2.650660 -1.109392 -0.204222 0 57 255
-2.702467 -1.043141 -0.234244 0 56 255
-5.224290 -1.872484 1.353651 0 96 255
-2.485156 -1.037111 -0.160278 0 58 255
-2.369020 -1.220058 0.471142 0 74 255
-2.534150 -1.083068 -0.141114 0 59 255
-2.484054 -1.114862 -0.041214 0 61 255
-2.559485 -1.142201 -0.083720 0 60 255
-2.654090 -1.007050 -0.253152 0 56 255
-2.343169 -1.589596 -0.110351 0 59 255
-2.560097 -1.154824 -0.113625 0 59 255
-2.584624 -1.169560 -0.137974 0 59 255
-2.564116 -1.195830 -0.094711 0 60 255
-2.587312 -1.093948 0.257911 0 69 255
-2.565523 -1.146339 -0.133237 0 59 255
-2.624442 -1.182978 0.080397 0 64 255
-2.775728 -1.100284 -0.252834 0 56 255
-2.816700 -1.396323 -0.002715 0 62 255
-2.774630 -1.529096 0.103608 0 65 255
-2.730978 -1.677965 -0.196964 0 57 255
-2.770274 -1.541654 0.102343 0 65 255
-2.858287 -1.589012 0.151305 0 66 255
-2.897125 -1.719457 0.171134 0 67 255
-2.734595 -1.727792 -0.211389 0 57 255
-2.748257 -1.743053 -0.215256 0 57 255
-2.842016 -1.935754 -0.035304 0 61 255
-2.842536 -2.067313 -0.211376 0 57 255
-2.851022 -1.778492 -0.129823 0 59 255
-2.915441 -1.883507 -0.257393 0 56 255
-3.121992 -1.669511 0.133669 0 66 255
-2.969044 -1.698025 0.110719 0 65 255
-3.038803 -1.735712 -0.214748 0 57 255
-3.061897 -1.794640 -0.227456 0 57 255
-3.212500 -2.060902 0.387330 0 72 255
-4.288888 -1.618194 -0.099178 0 60 255
-2.398331 -1.190872 0.200288 0 67 255
-3.316684 -1.730802 0.031770 0 63 255
-3.091122 -1.523324 0.196287 0 67 255
-3.060333 -1.852901 0.342100 0 71 255
-9.233887 2.203007 0.267607 0 69 255
-4.581884 -3.092724 -0.092607 0 60 255
-1.995040 -1.578515 1.022404 0 88 255
-2.449097 -1.135272 -0.178910 0 58 255
-2.588439 -1.041161 -0.206781 0 57 255
-2.576055 -1.128586 -0.012290 0 62 255
-2.635008 -1.059821 0.289075 0 70 255
-2.830635 -1.398171 0.031116 0 63 255
-2.877876 -1.692135 0.296043 0 70 255
-2.817224 -1.813097 -0.031923 0 61 255
-3.087289 -1.772886 0.125906 0 65 255
-2.790149 -2.249630 -0.196211 0 57 255
-2.829320 -2.498560 -0.229532 0 56 255
-3.772329 -3.176868 0.887699 0 85 255
-3.534245 -2.669029 0.726113 0 81 255
-5.036817 -2.192618 -0.277630 0 55 255
-8.562017 1.865776 1.236333 0 93 255
-13.443093 2.882365 3.494903 0 150 255
-6.333748 -5.553094 1.047201 0 89 255
-5.019444 -3.245467 0.546663 0 76 255
-2.616870 -1.026048 -0.215387 0 57 255
-2.622146 -1.043501 -0.198598 0 57 255
-2.637605 -1.049822 0.185348 0 67 255
-2.610478 -1.119648 -0.156966 0 58 255
-3.061547 -0.574681 -0.256389 0 56 255
-2.876755 -0.870702 -0.244782 0 56 255
-2.746081 -1.364133 0.083271 0 64 255
-2.845703 -1.769048 -0.128383 0 59 255
-3.117626 -1.617012 0.091045 0 65 255
-3.226910 -1.877107 0.159186 0 66 255
-3.158301 -1.809468 -0.151983 0 58 255
-2.733311 -1.667133 0.258931 0 69 255
-5.740212 -1.026964 2.778669 0 132 255
-3.303236 -1.850471 -0.182950 0 58 255
-8.073130 -5.093894 2.962320 0 137 255
-4.297271 -1.548835 2.616211 0 128 255
-5.372315 -1.900344 2.648920 0 129 255
-8.529450 2.130378 2.774812 0 132 255
-4.979519 -3.221379 -0.123318 0 59 255
-11.328339 -0.167829 2.075115 0 115 255
-10.913502 -0.825955 1.355036 0 96 255
-3.041626 -2.280856 0.438258 0 73 255
-6.095245 1.431597 1.713727 0 105 255
-4.581974 -3.106762 -0.079713 0 60 255
-4.858532 -2.083745 -0.277188 0 55 255
-6.003917 -3.089839 2.667724 0 129 255
-5.132670 -1.922631 1.656462 0 104 255
-4.958968 -2.106071 2.724098 0 131 255
-4.858200 -1.715070 2.355372 0 122 255
-8.255937 -3.283507 2.383385 0 122 255
-6.488358 -2.272591 2.622542 0 128 255
-9.604123 -3.327364 2.674809 0 130 255
-3.369924 -1.882794 0.082420 0 64 255
-9.033564 -4.630639 0.975631 0 87 255
-4.520800 -3.309505 0.042134 0 63 255
-7.899070 0.262101 0.895144 0 85 255
-7.789874 0.269554 0.809190 0 83 255
-8.500490 2.127439 2.753978 0 132 255
-5.090021 -3.328136 0.153302 0 66 255
-7.795569 0.280926 -0.240326 0 56 255
-4.335953 -3.300837 -0.211462 0 57 255
-4.491489 -3.302358 0.568522 0 77 255
-4.599407 -3.138585 1.925693 0 111 255
-5.001398 -1.914528 2.387205 0 122 255
-5.109219 -1.704252 1.139768 0 91 255
-4.854488 -2.421283 2.769709 0 132 255
-5.023147 -2.200413 -0.322843 0 54 255
-9.639888 0.290482 -0.279357 0 55 255
-6.446170 1.393700 2.564479 0 127 255
-10.108171 0.109213 0.154601 0 66 255
-10.520348 -1.206373 0.314594 0 70 255
-7.464313 -4.375857 0.949497 0 86 255
-9.917782 -2.828776 0.249567 0 69 255
-4.986403 -1.734338 -0.294423 0 55 255
-6.912359 -2.893079 -0.333292 0 54 255
-4.444599 -3.275305 0.568313 0 77 255
-4.323859 -3.305159 -0.200534 0 57 255
-4.705464 -3.114387 -0.123232 0 59 255
-9.764846 -0.441590 2.711431 0 131 255
-5.043026 -1.835646 1.469077 0 99 255
-6.640641 -4.124534 -0.196454 0 57 255
-6.761801 -4.154374 0.246772 0 68 255
-7.240153 1.825868 2.407729 0 123 255
-7.621569 -3.687284 0.328881 0 71 255
-7.847141 -4.175459 -0.218911 0 57 255
-3.842486 -0.797159 -0.258619 0 56 255
-3.984576 -0.601474 -0.253793 0 56 255
-4.389037 -3.469938 -0.309607 0 54 255
-4.520391 -0.217785 -0.256478 0 56 255
-4.048481 -1.100982 -0.260994 0 56 255
-4.135492 -0.850583 -0.262880 0 56 255
-4.353353 -0.813418 -0.250726 0 56 255
-3.978745 -1.925381 -0.272180 0 55 255
-4.590682 -3.060241 -0.297999 0 55 255
-5.052032 -1.733058 1.126200 0 91 255
-4.588198 -3.055159 -0.223374 0 57 255
-5.161836 -1.651024 1.219219 0 93 255
-5.091080 -1.621815 1.176094 0 92 255
-4.572921 -3.112796 0.756210 0 81 255
-10.775834 0.089153 0.531257 0 76 255
-8.500026 2.021270 1.895366 0 110 255
-8.437483 2.069478 2.199547 0 118 255
-7.947405 -4.569942 2.195432 0 118 255
-7.318848 -4.309106 2.596709 0 128 255
-4.212720 -1.140150 -0.252599 0 56 255
-4.477303 -1.162300 -0.270181 0 55 255
-4.960646 -3.183733 2.578698 0 127 255
-4.538571 -1.183510 -0.282711 0 55 255
-4.609540 -1.071268 -0.278877 0 55 255
-5.402212 -2.040802 2.399087 0 123 255
-8.680737 2.995182 2.801834 0 133 255
-8.471858 2.039160 0.118622 0 65 255
-6.398865 -3.182035 2.662097 0 129 255
-6.093677 -2.160335 2.856709 0 134 255
-4.606009 -3.150442 0.970498 0 87 255
-5.003033 -3.239085 1.822315 0 108 255
-9.253052 -5.210080 2.507868 0 125 255
-4.827034 -3.182720 1.586914 0 102 255
-8.430479 -4.546076 2.321357 0 121 255
-4.766168 -1.992427 -0.271110 0 55 255
-6.922200 0.217496 0.220734 0 68 255
-6.575970 0.186484 0.508474 0 75 255
-5.076673 -1.759135 1.037705 0 88 255
-8.261011 1.780998 1.243463 0 94 255
-4.913822 -3.059742 -0.291999 0 55 255
-4.568423 -3.101908 2.169323 0 117 255
-6.264715 -4.353467 2.560381 0 127 255
-4.698503 -3.129044 0.014423 0 63 255
-6.181454 1.529797 2.315682 0 121 255
-4.554901 -3.092271 2.633403 0 129 255
-5.041672 -1.602245 1.053720 0 89 255
-8.275211 1.830607 0.662469 0 79 255
-5.651859 0.734080 2.761571 0 132 255
-5.930452 -4.125400 0.145792 0 66 255
-6.236444 1.560013 1.812316 0 108 255
-8.115582 -2.933643 1.421094 0 98 255
-10.683324 0.064788 2.092046 0 115 255
-9.949739 -2.054868 2.299359 0 120 255
-4.352213 -3.393315 -0.215000 0 57 255
-4.852797 -2.019469 -0.092869 0 60 255
-5.022651 -2.153317 -0.254025 0 56 255
-4.977326 -3.193246 0.404724 0 72 255
-7.407063 0.182857 0.287332 0 70 255
-4.963979 -2.080302 -0.239141 0 56 255
-4.845734 -1.077508 -0.263146 0 56 255
-4.933249 -1.662934 -0.281104 0 55 255
-6.746037 0.214360 -0.270134 0 55 255
-5.980052 -3.051206 2.635057 0 129 255
-8.135718 1.119814 2.369513 0 122 255
-6.559121 -0.160787 -0.262535 0 56 255
-4.768950 -3.199221 0.908257 0 85 255
-7.958872 0.631772 -0.187670 0 58 255
-6.655154 -2.176433 2.706582 0 130 255
-8.311934 1.882570 0.639443 0 78 255
-7.427508 -2.174396 2.690299 0 130 255
-8.151097 -4.361882 0.811085 0 83 255
-8.955945 -3.343624 0.899619 0 85 255
-6.255141 -0.193893 1.231257 0 93 255
-5.311072 -1.010432 -0.273339 0 55 255
-5.033473 -3.289195 2.687044 0 130 255
-7.794863 0.344054 0.298794 0 70 255
-6.665629 0.139929 1.455939 0 99 255
-7.800643 2.246583 1.649684 0 104 255
-7.922565 2.083069 1.140574 0 91 255
-6.936077 0.077543 1.326321 0 96 255
-4.218213 -3.185775 2.565904 0 127 255
-7.043104 0.291559 0.237350 0 68 255
-7.869618 0.335846 0.815692 0 83 255
-7.054353 -0.054651 0.708295 0 80 255
-4.838534 -1.999460 -0.085048 0 60 255
-4.741368 -3.215471 0.681931 0 79 255
-4.555231 -1.791955 -0.242196 0 56 255
-4.990689 -3.206393 1.595996 0 102 255
-6.211487 -4.011625 1.867616 0 109 255
-7.820796 0.283427 -0.228791 0 57 255
-7.966383 0.650304 -0.027543 0 62 255
-8.325696 1.340801 2.149736 0 116 255
-6.854353 0.374550 0.265360 0 69 255
-7.425165 0.418766 -0.208705 0 57 255
-6.808951 -0.323375 -0.305205 0 55 255
-7.346662 0.134348 0.647981 0 79 255
-6.861397 -0.123890 1.023713 0 88 255
-6.834897 0.262468 0.569636 0 77 255
-7.890539 0.645071 0.033612 0 63 255
-7.286498 0.362848 1.413066 0 98 255
-7.395697 -4.372924 2.647513 0 129 255
-6.810110 -4.149523 1.197613 0 92 255
-4.957685 -3.122848 0.161338 0 66 255
-4.806472 -1.015574 -0.253943 0 56 255
-4.385459 -1.858004 -0.269545 0 55 255
-6.251888 1.746041 1.956699 0 112 255
-7.840778 2.174277 0.033272 0 63 255
-7.179784 0.141902 0.959456 0 86 255
-5.613268 -3.951827 0.695728 0 80 255
-4.959557 -3.173854 0.741675 0 81 255
-4.535310 -2.123794 -0.282637 0 55 255
-7.617103 -2.657701 2.859083 0 134 255
-4.969728 -3.127210 -0.226709 0 57 255
-5.011668 -3.252978 0.401944 0 72 255
-4.587780 -1.863200 -0.270702 0 55 255
-6.840205 -0.124196 1.035705 0 88 255
-6.845691 0.338738 0.255104 0 69 255
-5.106030 -1.683682 1.027851 0 88 255
-5.518306 -3.776560 0.650882 0 79 255
-4.825445 -2.074733 -0.301035 0 55 255
-7.128927 0.253242 1.336425 0 96 255
-7.021712 0.211629 1.295151 0 95 255
-4.374331 -2.980947 -0.264981 0 56 255
-7.222545 -3.198304 -0.385721 0 53 255
-6.959967 -0.039798 0.399423 0 72 255
-10.754661 -1.493749 1.347190 0 96 255
-4.345645 -3.346852 0.530569 0 76 255
-10.629329 -2.409863 2.051819 0 114 255
-10.189896 -1.869538 0.422094 0 73 255
-4.443224 -0.806249 -0.259416 0 56 255
-4.751786 -1.143291 -0.261080 0 56 255
-4.802635 -1.021182 -0.254133 0 56 255
-4.832437 -1.124917 -0.259575 0 56 255
-4.834519 -1.532152 -0.265494 0 56 255
-5.141572 -0.840094 -0.278515 0 55 255
-4.682332 -3.075930 0.021009 0 63 255
-5.331439 -1.921247 1.216515 0 93 255
-5.690629 -0.711923 -0.274182 0 55 255
-5.052490 -2.167786 -0.257655 0 56 255
-5.487704 -1.586760 -0.293030 0 55 255
-8.075686 2.085127 1.522740 0 101 255
-4.441225 -2.948813 0.051744 0 64 255
-6.853133 0.574533 -0.278352 0 55 255
-4.827310 -1.985591 -0.087436 0 60 255
-7.944508 -3.008414 2.676724 0 130 255
-4.586914 -3.118550 1.257613 0 94 255
-4.568622 -3.061902 0.606712 0 78 255
-4.350972 -3.348602 1.469740 0 99 255
-4.744064 -3.033113 1.122395 0 91 255
-6.748404 -0.011916 1.488271 0 100 255
-8.103287 1.228265 -0.111304 0 59 255
-8.111931 1.127653 2.326061 0 121 255
-4.438632 -3.317665 -0.320921 0 54 255
-4.343548 -3.348817 -0.089929 0 60 255
-4.845831 -3.191525 0.660546 0 79 255
-6.538939 -4.115910 1.286603 0 95 255
-7.649294 -4.280687 0.026879 0 63 255
-10.087293 -2.150715 0.290036 0 70 255
-4.707331 -0.938815 -0.258283 0 56 255
-4.739095 -1.001849 -0.253489 0 56 255
-4.705653 -1.762430 -0.259053 0 56 255
-4.847852 -2.022883 -0.280080 0 55 255
-4.286622 -1.622197 -0.270939 0 55 255
-4.540363 -2.980457 2.476610 0 125 255
-5.267020 -0.729228 -0.237397 0 56 255
-5.020466 -1.598183 1.030314 0 88 255
-7.965297 2.053503 0.091633 0 65 255
-6.098398 -3.937671 -0.024832 0 62 255
-8.258132 1.822119 1.056187 0 89 255
-6.876243 0.279153 0.573083 0 77 255
-9.861751 0.049722 -0.159870 0 58 255
-6.295503 -4.051513 0.166822 0 66 255
-9.713805 -2.901667 2.679463 0 130 255
-8.124043 1.239189 1.246597 0 94 255
-10.240937 -2.963614 1.939630 0 111 255
-10.456298 -2.353532 1.384993 0 97 255
-4.373836 -1.690300 -0.285818 0 55 255
-4.398421 -1.927023 -0.295402 0 55 255
-4.856080 -1.123891 -0.268619 0 56 255
-4.818612 -1.967648 -0.079701 0 60 255
-4.940067 -3.153168 -0.136834 0 59 255
-7.641121 2.088592 1.565032 0 102 255
-4.592931 -3.129366 1.977698 0 112 255
-4.804020 -1.081269 -0.246636 0 56 255
-7.057973 0.002879 1.259756 0 94 255
-8.225847 1.272608 1.291866 0 95 255
-8.933930 0.482103 0.551944 0 76 255
-5.782392 -4.194078 2.532761 0 126 255
-8.482791 1.409997 1.789923 0 107 255
-7.887240 1.318639 1.135178 0 91 255
-5.416331 -1.903692 2.388980 0 122 255
-5.013840 -3.295150 -0.125050 0 59 255
-10.440813 -0.169412 0.210130 0 68 255
-8.898919 -4.801336 -0.399319 0 52 255
-8.425358 -3.146978 -0.299084 0 55 255
-4.821342 -1.008813 -0.259930 0 56 255
-5.358366 -0.991903 -0.290686 0 55 255
-4.796684 -3.061093 -0.295474 0 55 255
-5.697248 -0.705165 -0.278198 0 55 255
-5.086671 -2.222006 -0.268781 0 56 255
-5.605160 -1.468351 -0.281748 0 55 255
-4.941144 -3.082080 0.053067 0 64 255
-6.286746 -3.310152 -0.294989 0 55 255
-7.874653 -2.854952 2.568644 0 127 255
-6.949358 0.071118 1.335867 0 96 255
-7.115611 -3.052923 -0.356977 0 53 255
-6.970819 0.255349 0.225906 0 68 255
-7.903252 -2.852751 2.193437 0 118 255
-8.086276 -4.362206 -0.215329 0 57 255
-9.324764 -4.804562 1.050132 0 89 255
-9.995540 -1.831230 0.639052 0 78 255
-8.296205 -4.289976 2.585024 0 127 255
-10.218556 -2.256001 0.533580 0 76 255
-5.695767 -0.710985 -0.274511 0 55 255
-4.999259 -3.240744 2.205616 0 118 255
-5.690798 -1.265934 -0.280402 0 55 255
-8.982574 0.508364 0.569440 0 77 255
-7.532829 -2.616476 2.712353 0 131 255
-4.738304 -3.091634 0.923707 0 86 255
-10.307080 -2.940515 0.789808 0 82 255
-8.008854 -2.872892 0.650486 0 79 255
-9.869901 -2.341976 0.198861 0 67 255
-6.840772 0.169242 0.209893 0 68 255
-6.903690 -0.284964 -0.314249 0 54 255
-7.283022 -4.274451 0.320753 0 70 255
-8.192594 -3.257965 2.323458 0 121 255
-7.921183 0.380755 0.589837 0 77 255
-7.315574 -4.147727 0.287710 0 70 255
-9.195209 0.568997 0.577306 0 77 255
-10.593356 -0.491755 2.129965 0 116 255
-7.778888 -2.682010 2.515254 0 126 255
-9.179129 -4.632538 -0.130525 0 59 255
-8.408751 -3.100470 -0.061912 0 61 255
-7.072494 -2.503310 -0.322473 0 54 255
-5.681685 -0.877288 -0.308013 0 55 255
-9.309371 0.481702 0.077955 0 64 255
-8.922508 0.634378 0.600077 0 77 255
-8.230267 -3.021677 1.799506 0 108 255
-9.258368 -4.798499 2.174449 0 117 255
-9.726095 -2.847818 2.033271 0 114 255
-8.762849 -4.150479 0.765040 0 82 255
-5.297421 -0.876948 -0.284400 0 55 255
-5.558298 -0.858250 -0.278778 0 55 255
-5.555573 -0.836847 -0.289231 0 55 255
-6.647234 -4.136388 -0.191816 0 57 255
-8.889337 3.955120 2.369990 0 122 255
-7.813055 0.305214 0.581454 0 77 255
-8.184287 0.518502 0.670757 0 79 255
-5.438578 -0.576716 -0.271008 0 55 255
-6.901878 -2.874750 -0.321389 0 54 255
-6.939143 -2.481392 -0.068332 0 61 255
-7.942605 -2.854382 -0.328221 0 54 255
-8.101366 -3.916004 2.418648 0 123 255
-7.056547 -0.483070 2.668424 0 130 255
-6.397305 -3.181759 2.667866 0 129 255
-7.934325 -2.675863 -0.308179 0 55 255
-8.139005 -4.573725 0.214440 0 68 255
-11.070947 -0.832724 0.787008 0 82 255
-6.216353 1.657728 2.339249 0 121 255
-10.807323 -1.495293 0.758755 0 81 255
-5.447703 -1.041192 -0.288088 0 55 255
-5.434144 -1.522045 -0.280159 0 55 255
-5.491807 -1.507717 -0.276269 0 55 255
-5.701982 -1.263171 -0.286784 0 55 255
-5.433836 -0.661254 -0.268999 0 55 255
-6.760767 -4.161110 0.249070 0 69 255
-8.881957 -4.816545 0.953542 0 86 255
-6.839741 -2.353426 2.379475 0 122 255
-7.950255 -1.703789 2.724980 0 131 255
-9.552330 -1.617615 2.711800 0 131 255
-6.973539 -0.018233 1.220603 0 93 255
-10.160859 -0.081790 -0.258637 0 56 255
-11.277952 -0.178267 2.039911 0 114 255
-10.117937 -1.680632 2.626406 0 128 255
-10.402430 -1.033957 0.192113 0 67 255
-7.027617 -4.348658 2.377904 0 122 255
-9.159422 -3.117849 -0.306034 0 55 255
-5.610343 -0.913590 -0.275859 0 55 255
-7.532186 -4.110845 -0.219729 0 57 255
-6.689558 -4.017562 2.063467 0 114 255
-7.141526 -1.269351 2.696884 0 130 255
-9.801236 0.131392 -0.269025 0 55 255
-10.456346 -0.667294 2.661536 0 129 255
-8.219810 -2.989257 0.652107 0 79 255
-5.622677 -0.894478 -0.282442 0 55 255
-8.025885 0.429106 -0.112071 0 59 255
-7.003526 1.614382 1.320447 0 96 255
-7.412320 2.270386 0.353159 0 71 255
-5.561062 -0.876445 -0.273913 0 55 255
-6.965797 -2.937448 -0.198183 0 57 255
-7.983076 -4.395466 -0.179621 0 58 255
-8.240310 -3.271845 -0.004894 0 62 255
-7.704257 -4.353745 0.056456 0 64 255
-8.082538 -2.919720 0.002037 0 62 255
-8.979188 0.679139 0.155046 0 66 255
-8.955130 0.664968 0.155384 0 66 255
-10.878463 -1.534217 2.041444 0 114 255
-10.632954 -1.887780 2.024169 0 113 255
-9.367486 -2.717089 -0.292762 0 55 255
-10.038038 -2.904619 0.627241 0 78 255
-5.779057 -0.793512 -0.277091 0 55 255
-6.220565 -0.985137 -0.293000 0 55 255
-6.382781 -2.060677 -0.307144 0 55 255
-6.149579 -1.758757 -0.279063 0 55 255
-7.008245 -2.417494 -0.063265 0 61 255
-7.149854 -2.501684 -0.173648 0 58 255
-8.522621 0.266807 -0.195165 0 57 255
-8.119562 -2.951225 -0.259788 0 56 255
-8.047768 -2.908541 1.915445 0 111 255
-6.180797 -3.925991 1.801042 0 108 255
-9.532316 -0.282584 2.740486 0 131 255
-6.890851 -2.432057 -0.160844 0 58 255
-9.417599 -3.168097 0.712192 0 80 255
-8.455659 -1.009350 2.689877 0 130 255
-5.976743 -0.414360 -0.283718 0 55 255
-6.169081 -1.430171 -0.294837 0 55 255
-6.260190 -1.175977 -0.290341 0 55 255
-6.765630 -0.368114 -0.293041 0 55 255
-7.433747 -2.714840 2.402625 0 123 255
-9.657236 -3.857490 2.738736 0 131 255
-6.773108 -2.353344 -0.148655 0 59 255
-8.047389 -2.904542 -0.096831 0 60 255
-9.317475 -2.679097 2.693615 0 130 255
-9.127645 -4.474336 -0.005335 0 62 255
-10.039448 -2.633598 0.430595 0 73 255
-5.688520 -1.828858 -0.276647 0 55 255
-6.150782 -0.181866 -0.280281 0 55 255
-6.357307 -0.969071 -0.291793 0 55 255
-7.146006 -2.645618 -0.009097 0 62 255
-7.488256 -1.619246 -0.324980 0 54 255
-7.966415 0.819906 0.561882 0 76 255
-7.864548 0.311999 0.950321 0 86 255
-9.009009 4.104959 -0.230905 0 56 255
-7.835450 0.533038 1.471470 0 99 255
-8.169378 -2.902435 1.995260 0 113 255
-8.435040 0.737205 0.237983 0 68 255
-6.353744 -1.033806 -0.316741 0 54 255
-10.149401 0.232239 2.698463 0 130 255
-7.984222 0.535630 0.680104 0 79 255
-9.890585 -2.112566 0.310403 0 70 255
-10.271672 -2.693414 0.666350 0 79 255
-6.006157 -0.454619 -0.284860 0 55 255
-6.143812 -0.667775 -0.291187 0 55 255
-7.333840 -3.877457 -0.195162 0 57 255
-9.205284 2.181824 2.474843 0 125 255
-7.841978 0.322348 1.046324 0 89 255
-8.197545 0.573222 1.201907 0 93 255
-7.917115 0.630781 1.541561 0 101 255
-7.318491 -4.313172 -0.333500 0 54 255
-7.339374 -4.289003 2.577225 0 127 255
-8.337990 0.775011 2.683133 0 130 255
-9.697403 0.224738 0.205428 0 67 255
-10.573674 -2.396138 0.807542 0 83 255
-9.969313 -1.989121 0.506169 0 75 255
-6.159747 -0.711087 -0.291046 0 55 255
-6.581020 -0.408152 -0.308341 0 55 255
-7.768867 0.585853 1.174286 0 92 255
-6.926737 -2.406370 2.515487 0 126 255
-9.126929 -3.064481 2.340806 0 121 255
-9.359037 -5.203290 2.814334 0 133 255
-7.826479 0.471361 1.249224 0 94 255
-7.951260 -2.841310 0.197308 0 67 255
-9.835849 -2.589392 -0.215783 0 57 255
-7.650369 2.275653 -0.199653 0 57 255
-6.217329 -2.296752 -0.300246 0 55 255
-9.912868 0.093174 0.124527 0 65 255
-7.826917 0.483192 1.251153 0 94 255
-8.004314 0.915672 2.310628 0 120 255
-9.193503 0.571638 0.575745 0 77 255
-10.119633 -1.765104 0.528025 0 76 255
-9.273658 4.520054 0.743662 0 81 255
-6.604394 -0.395403 -0.314584 0 54 255
-8.168423 0.885002 2.672136 0 130 255
-6.909125 1.446801 1.032229 0 88 255
-6.970352 1.524968 1.292835 0 95 255
-8.094969 0.483202 -0.021216 0 62 255
-6.499809 0.581213 0.868770 0 84 255
-8.610856 0.700106 1.345165 0 96 255
-7.788479 0.671513 0.539603 0 76 255
-5.773634 -0.897768 -0.295401 0 55 255
-6.707487 1.520594 1.327041 0 96 255
-10.563516 -0.095893 2.603010 0 128 255
-5.785229 -0.448361 -0.286571 0 55 255
-5.981509 -0.402304 -0.285313 0 55 255
-10.145494 5.738581 2.050354 0 114 255
-6.907459 1.124966 0.956156 0 86 255
-7.867121 0.796003 1.291000 0 95 255
-6.898758 1.439183 1.023086 0 88 255
-8.944874 3.920259 2.391265 0 123 255
-7.862008 1.215335 2.331629 0 121 255
-9.585708 -2.990512 0.692786 0 80 255
-7.862001 0.777068 1.530280 0 101 255
-7.835199 0.750765 1.530582 0 101 255
-8.060356 1.154611 1.385309 0 97 255
-7.502117 1.906793 0.397453 0 72 255
-7.774105 2.636125 1.225748 0 93 255
-10.260231 -2.946245 0.767877 0 82 255
-6.726473 1.683135 -0.099246 0 60 255
-6.503124 -4.050733 1.256017 0 94 255
-6.510233 1.609797 0.975844 0 87 255
-6.535409 1.567263 0.796307 0 82 255
-6.986585 1.810851 0.670785 0 79 255
-8.258124 1.108080 -0.289431 0 55 255
-6.267982 1.512157 1.052548 0 89 255
-6.351140 1.635208 1.068214 0 89 255
-7.380445 -2.501238 2.808807 0 133 255
-6.487052 1.554824 0.955284 0 86 255
-7.499704 2.449994 0.344924 0 71 255
-6.885233 1.400995 0.702575 0 80 255
-5.439008 -0.845791 -0.280751 0 55 255
-5.604306 -1.428518 -0.275229 0 55 255
-6.525787 1.635216 0.658440 0 79 255
-6.487953 1.496213 0.764990 0 82 255
-6.249675 1.569585 1.051279 0 89 255
-9.025683 0.680238 0.854892 0 84 255
-5.383432 -0.526399 -0.275885 0 55 255
-5.709863 0.682329 0.530178 0 76 255
-5.528342 1.002029 1.513410 0 100 255
-5.592318 0.818011 1.181439 0 92 255
-5.613008 0.913440 1.238804 0 93 255
-5.581964 0.833033 1.185884 0 92 255
-7.648012 -4.271370 -0.017044 0 62 255
-5.374043 1.042684 1.314964 0 95 255
-5.486381 1.894544 2.292451 0 120 255
-6.250840 1.680476 -0.222249 0 57 255
-5.722519 0.906402 1.019840 0 88 255
-9.016015 -3.468798 1.874348 0 109 255
-5.524681 0.646146 0.719043 0 80 255
-5.731363 0.680881 0.258585 0 69 255
-6.661886 1.488953 0.355075 0 71 255
-5.373228 0.844613 1.209272 0 93 255
-5.386639 0.923266 1.261848 0 94 255
-5.616828 0.769190 -0.237976 0 56 255
-8.056085 -4.690833 2.260037 0 119 255
-8.501822 2.012860 1.534864 0 101 255
-6.535473 1.680530 0.749474 0 81 255
-5.701571 0.851587 0.583499 0 77 255
-5.276704 0.844386 1.173458 0 92 255
-5.708692 0.705855 0.270382 0 69 255
-6.984304 0.843049 -0.294048 0 55 255
-9.791572 -0.430598 2.724622 0 131 255
-6.252820 -1.965813 -0.266391 0 56 255
-5.647582 -0.025260 -0.270905 0 55 255
-6.164768 -0.758332 -0.301155 0 55 255
-6.175803 -0.269020 -0.283848 0 55 255
-6.357952 -0.538624 -0.298417 0 55 255
-6.666882 1.517396 0.363028 0 71 255
-10.160060 -1.877502 0.265937 0 69 255
-9.389553 -2.721410 -0.070407 0 60 255
-6.305180 2.007213 0.981268 0 87 255
-10.659645 -1.184011 0.366175 0 71 255
-8.109959 1.160486 2.326643 0 121 255
-5.740358 0.879901 1.007185 0 88 255
-7.786860 1.604418 -0.246885 0 56 255
-10.017368 -1.867634 2.046454 0 114 255
-6.235080 1.670457 1.805034 0 108 255
-10.610608 -1.228975 0.278351 0 69 255
-9.226281 -3.077209 0.626727 0 78 255
-6.649746 1.618839 2.366008 0 122 255
-10.692910 -1.660966 0.425714 0 73 255
-7.895369 -2.685874 2.320590 0 121 255
-6.649820 -2.205577 -0.253676 0 56 255
-7.683779 -2.710557 -0.226416 0 57 255
-9.086404 -3.070475 -0.296463 0 55 255
-6.500542 1.624439 -0.123030 0 59 255
-10.028591 -1.817649 0.045541 0 63 255
-9.429807 -3.175690 0.712876 0 80 255
-7.902755 -2.751848 1.904216 0 110 255
-6.727153 1.370002 0.765536 0 82 255
-10.748845 0.069639 0.521974 0 75 255
-7.003427 -0.801885 -0.284701 0 55 255
-7.388344 2.240317 0.332914 0 71 255
-10.844712 -0.399091 0.430361 0 73 255
-6.756182 -0.389887 -0.289667 0 55 255
-6.914178 1.536808 0.624676 0 78 255
-10.189807 -2.951727 1.914119 0 110 255
-6.522974 -0.434089 -0.291020 0 55 255
-6.921455 -0.967771 -0.281995 0 55 255
-6.448358 -0.193553 -0.276214 0 55 255
-7.142509 -0.941438 -0.287874 0 55 255
-6.396977 -0.023449 -0.275334 0 55 255
-6.954348 0.676410 -0.273458 0 55 255
-6.769763 1.439780 -0.155605 0 58 255
-10.070042 -1.522157 -0.016080 0 62 255
-7.670536 3.146793 2.700067 0 130 255
-10.700604 -0.766440 0.358124 0 71 255
-7.912100 -1.703010 2.679365 0 130 255
-9.569468 0.174044 -0.059107 0 61 255
-8.925969 0.643008 0.606518 0 78 255
-6.228776 0.263646 -0.272948 0 55 255
-6.672642 -0.369856 -0.308590 0 54 255
-7.052841 -0.670495 -0.284360 0 55 255
-6.896610 1.287477 2.360845 0 122 255
-8.597454 -2.902927 2.615431 0 128 255
-9.292146 0.589156 0.374630 0 72 255
-6.674657 -0.929424 -0.283442 0 55 255
-6.609864 -0.731771 -0.274735 0 55 255
-6.758243 -0.611478 -0.276870 0 55 255
-6.720743 -0.404044 -0.279976 0 55 255
-6.971509 -0.880397 -0.290001 0 55 255
-6.764055 0.146772 -0.277069 0 55 255
-7.198519 0.587403 2.764338 0 132 255
-10.136503 -1.685062 0.128154 0 66 255
-8.578838 2.907585 2.710660 0 131 255
-6.768325 -0.609257 -0.278747 0 55 255
-7.838755 -0.272343 -0.275293 0 55 255
-8.321718 0.819983 1.335021 0 96 255
-8.343389 0.831964 1.241632 0 94 255
-8.586514 0.702967 1.327093 0 96 255
-7.111445 -0.192779 -0.261787 0 56 255
-9.357086 -2.715247 -0.291061 0 55 255
-10.067895 -2.658399 0.436157 0 73 255
-8.811553 0.677266 -0.197827 0 57 255
-6.779055 -0.313290 -0.274591 0 55 255
-10.853409 -1.512241 0.339171 0 71 255
-10.509354 -2.363203 1.540329 0 101 255
-6.507875 -0.229755 -0.281698 0 55 255
-6.778058 -0.377595 -0.298275 0 55 255
-8.607788 0.755212 0.848881 0 84 255
-6.249308 1.728980 -0.228986 0 57 255
-7.153367 -0.886226 -0.285412 0 55 255
-8.794049 0.682609 -0.163212 0 58 255
-8.988558 0.590648 -0.218780 0 57 255
-9.692929 -2.839941 2.016303 0 113 255
-7.020282 -0.809664 -0.290533 0 55 255
-9.015888 0.643281 0.624140 0 78 255
-8.331439 0.804890 0.987703 0 87 255
-8.166904 0.816136 -0.220828 0 57 255
-8.216221 0.867040 1.076130 0 89 255
-8.439281 0.797380 0.154749 0 66 255
-8.328066 0.824713 0.810112 0 83 255
-7.999963 0.929353 -0.242875 0 56 255
-8.212187 0.866554 -0.014393 0 62 255
-7.179414 -0.581224 -0.285859 0 55 255
-6.740783 -0.256807 -0.275794 0 55 255
-10.379416 -0.855999 -0.191150 0 57 255
-10.705997 0.078737 2.094748 0 115 255
-6.650590 -0.278750 -0.280662 0 55 255
-6.704608 -0.240832 -0.263889 0 56 255
-6.752488 -0.219492 -0.285066 0 55 255
-7.040787 -0.581636 -0.288835 0 55 255
-6.815824 -0.234023 -0.264652 0 56 255
-6.674536 0.200560 -0.275525 0 55 255
-6.638502 0.224701 -0.272799 0 55 255
-7.336755 -0.739221 -0.284344 0 55 255
-8.308808 0.827145 1.321570 0 96 255
-8.606069 0.744497 -0.136084 0 59 255
-8.514448 1.610666 2.336105 0 121 255
-8.011853 0.932223 0.652650 0 79 255
-8.620258 0.730484 1.250021 0 94 255
-6.396267 -0.022303 -0.275342 0 55 255
-6.722062 -0.484475 -0.278189 0 55 255
-6.668489 1.484258 -0.165174 0 58 255
-6.330361 2.096293 1.012704 0 88 255
-10.533700 -0.155294 0.216826 0 68 255
-6.812584 -0.528033 -0.280547 0 55 255
-6.724566 -0.224330 -0.281990 0 55 255
-6.924842 0.771720 -0.277835 0 55 255
-7.850724 0.880289 -0.212161 0 57 255
-7.102038 0.679857 -0.280482 0 55 255
-7.500839 0.725028 -0.287723 0 55 255
-7.584511 2.760974 1.700754 0 105 255
-7.985816 0.917511 0.095965 0 65 255
-8.847661 0.663456 0.012837 0 63 255
-8.485550 0.830585 -0.002428 0 62 255
-8.001353 0.917971 0.966317 0 87 255
-7.997994 0.923243 0.387568 0 72 255
-8.023109 0.931382 1.688487 0 105 255
-8.090884 1.215698 -0.264132 0 56 255
-8.638924 0.728205 0.009600 0 63 255
-7.817105 2.045821 2.729158 0 131 255
-9.675436 -1.355923 2.767228 0 132 255
-7.089139 -0.454416 -0.286813 0 55 255
-7.109669 -0.282472 -0.278639 0 55 255
-7.365627 -0.542734 -0.284380 0 55 255
-8.350948 3.167613 1.967090 0 112 255
-8.322260 0.826500 -0.096725 0 60 255
-9.819350 2.920600 2.904496 0 135 255
-8.891273 0.650827 0.150082 0 66 255
-6.204112 0.179992 -0.277551 0 55 255
-8.540614 -1.545898 -0.277604 0 55 255
-8.619960 0.680835 0.692628 0 80 255
-8.595875 0.757399 0.983506 0 87 255
-8.877418 0.679266 -0.211241 0 57 255
-6.757506 -0.084634 -0.275267 0 55 255
-7.336027 -0.287555 -0.279672 0 55 255
-6.825787 0.722870 -0.265738 0 56 255
-7.976179 0.462034 -0.288562 0 55 255
-7.996819 2.704909 1.254953 0 94 255
-8.216496 0.864712 0.820282 0 83 255
-8.440338 0.800886 0.039203 0 63 255
-8.437289 0.799896 -0.035961 0 61 255
-8.559134 0.752072 0.065514 0 64 255
-7.949994 1.786350 0.742803 0 81 255
-8.561042 0.768188 -0.039556 0 61 255
-7.528169 -0.390218 -0.279609 0 55 255
-6.920635 -0.679104 -0.288454 0 55 255
-6.550742 1.620044 -0.240925 0 56 255
-6.906184 -0.045746 -0.279250 0 55 255
-7.874761 1.214024 2.326025 0 121 255
-8.950982 0.647440 0.834378 0 83 255
-10.158293 -2.137697 0.231049 0 68 255
-8.138547 2.056623 2.748906 0 132 255
-11.047118 -0.390463 0.295957 0 70 255
-6.828059 -0.229328 -0.275809 0 55 255
-7.023302 -0.396246 -0.284355 0 55 255
-7.442066 -0.429051 -0.274078 0 55 255
-6.983592 1.644538 -0.138537 0 59 255
-7.837215 1.642224 -0.195743 0 57 255
-7.474032 1.769359 -0.283693 0 55 255
-7.762722 1.581749 -0.254935 0 56 255
-7.505395 -1.026326 -0.290800 0 55 255
-7.215884 -0.134926 -0.287817 0 55 255
-6.878503 0.234370 -0.276870 0 55 255
-7.061408 1.236110 2.314037 0 121 255
-7.042863 -0.656125 -0.278815 0 55 255
-8.182935 0.893643 0.593865 0 77 255
-7.087303 -0.161758 -0.278937 0 55 255
-11.327046 -0.173633 0.793848 0 82 255
-9.090487 -0.470457 2.748084 0 132 255
-7.270944 -0.747928 -0.304204 0 55 255
-6.814381 -0.069571 -0.270968 0 55 255
-7.063692 0.369050 -0.268050 0 56 255
-7.220264 1.937907 0.757164 0 81 255
-8.057484 1.174247 1.148488 0 91 255
-7.117040 1.429338 2.316375 0 121 255
-10.491314 -1.954201 0.424243 0 73 255
-7.707653 2.532515 1.130062 0 91 255
-8.570185 2.210930 2.400964 0 123 255
-9.234845 -0.106538 2.673482 0 130 255
-10.631577 -0.697903 0.225030 0 68 255
-7.339823 -0.739683 -0.281986 0 55 255
-7.795134 1.898633 1.118673 0 90 255
-7.652716 1.519408 -0.138244 0 59 255
-7.445844 1.564904 0.561710 0 76 255
-7.726842 1.509613 1.015157 0 88 255
-7.549475 1.483061 0.640095 0 78 255
-8.490183 2.041622 0.980119 0 87 255
-7.724823 3.173978 1.274088 0 94 255
-9.379309 -2.959052 1.752943 0 106 255
-7.341208 -0.596159 -0.279135 0 55 255
-6.852685 0.010009 -0.273526 0 55 255
-7.081092 -0.160935 -0.275636 0 55 255
-7.128180 -0.238296 -0.276679 0 55 255
-6.993428 0.002497 -0.275282 0 55 255
-7.245528 -0.039214 -0.277312 0 55 255
-7.677650 1.739196 1.536507 0 101 255
-7.922674 0.975583 -0.354766 0 53 255
-7.501800 1.519173 -0.096999 0 60 255
-7.552546 1.779049 0.647053 0 79 255
-8.293311 0.814848 0.797161 0 82 255
-7.500230 1.508424 -0.097691 0 60 255
-7.876321 1.860617 1.446597 0 99 255
-6.665575 0.182530 -0.268640 0 56 255
-8.415149 2.161844 1.006037 0 88 255
-6.647788 1.688985 0.642846 0 78 255
-9.658582 -2.799237 1.991845 0 112 255
-6.908354 0.161232 -0.291776 0 55 255
-7.606273 2.709747 1.661878 0 104 255
-8.799659 0.688272 0.346124 0 71 255
-7.811473 2.647717 -0.167271 0 58 255
-6.694351 1.417768 0.735157 0 81 255
-6.847458 1.749772 0.865368 0 84 255
-6.885336 1.460458 0.559446 0 76 255
-8.495242 2.055506 -0.268259 0 56 255
-9.967362 -2.372980 0.209334 0 68 255
-8.450853 2.021049 0.463950 0 74 255
-8.994373 0.636490 0.032580 0 63 255
-6.915855 -0.579140 -0.284942 0 55 255
-6.633418 1.498788 1.107642 0 90 255
-6.628483 1.475311 1.083875 0 90 255
-7.022359 1.582170 0.891930 0 85 255
-7.060318 1.692625 0.942178 0 86 255
-7.606659 1.755841 1.211161 0 93 255
-7.701299 1.406033 0.564736 0 77 255
-8.382179 1.906569 1.457536 0 99 255
-8.241879 1.336518 1.683644 0 105 255
-8.161040 0.314048 -0.284003 0 55 255
-7.005187 -0.724496 -0.294937 0 55 255
-7.623782 1.841929 0.705714 0 80 255
-7.723644 1.493310 1.002552 0 88 255
-8.230982 0.865089 -0.088725 0 60 255
-7.571314 -0.297388 -0.294949 0 55 255
-7.889933 2.520885 -0.143214 0 59 255
-6.878870 1.448484 0.552077 0 76 255
-7.784504 2.636940 1.458433 0 99 255
-7.801558 2.708798 1.196115 0 92 255
-7.833759 2.967158 1.181539 0 92 255
-6.743976 -0.559846 -0.278467 0 55 255
-7.996044 4.208091 2.453412 0 124 255
-6.789445 -0.708936 -0.278603 0 55 255
-6.792994 -0.710737 -0.277229 0 55 255
-6.775403 1.804462 0.868141 0 84 255
-7.547133 1.583056 1.417436 0 98 255
-7.713488 1.580294 0.258502 0 69 255
-7.731030 1.600113 0.256418 0 69 255
-10.008664 -3.029644 0.579652 0 77 255
-7.009199 -0.346532 -0.280116 0 55 255
-8.057856 2.654374 0.504434 0 75 255
-7.852148 2.824536 1.242069 0 94 255
-7.592490 2.678062 0.516471 0 75 255
-6.985273 -0.715133 -0.310663 0 54 255
-8.341693 0.833663 -0.005484 0 62 255
-7.181021 2.089292 0.860269 0 84 255
-6.862962 1.632428 0.472409 0 74 255
-6.760928 1.388309 -0.230475 0 56 255
-6.663450 1.513709 0.727886 0 81 255
-7.585198 1.729045 1.193149 0 92 255
-7.713843 2.748490 0.499405 0 75 255
-7.447764 1.450515 0.905467 0 85 255
-7.864453 1.673343 0.789196 0 82 255
-7.574477 1.517051 0.654151 0 79 255
-7.810352 2.608302 0.308422 0 70 255
-6.821312 1.428007 1.194017 0 92 255
-8.106730 -3.078574 1.921298 0 111 255
-7.552241 2.309828 -0.175559 0 58 255
-8.724669 -0.156798 -0.272066 0 55 255
-7.489153 1.569147 -0.190954 0 57 255
-7.565911 1.816631 1.509771 0 100 255
-6.186540 1.573686 2.386996 0 122 255
-7.695799 1.342050 0.642109 0 78 255
-9.634578 -3.374513 0.901055 0 85 255
-9.990290 -0.404126 2.761117 0 132 255
-6.902526 -0.913548 -0.279306 0 55 255
-7.045939 0.414145 -0.277774 0 55 255
